# .PCD v0.7 - Point Cloud Data file format
VERSION 0.7
FIELDS x y z rgb
SIZE 4 4 4 4
TYPE F F F U
COUNT 1 1 1 1
WIDTH 523
HEIGHT 1
VIEWPOINT 0 0 0 1 0 0 0
POINTS 523
DATA ascii
-1.4463135 -1.7488587 2.3613281 4290691523
-1.1373292 -1.7429199 2.3632812 4289836471
-0.61816418 -1.7540405 2.4726562 4287139989
-1.5279785 -1.8285644 2.671875 4291218124
-2.3040955 -1.8449768 2.7207031 4290429381
-2.2403686 -1.8470215 2.7363281 4290429381
0.24720454 -0.3467285 0.51367188 4285298296
-0.71885389 -1.8187866 2.7714844 4287534231
-0.46015635 -1.259375 1.9375 4284705389
-2.2659853 -1.8837707 2.9121094 4292007383
-0.24609381 -0.80078125 1.25 4285561472
-0.24628606 -0.79749757 1.2509766 4285561472
-2.6402283 -1.9393678 3.0722656 4291415246
-1.6404421 -1.9202821 3.0878909 4292270812
-0.70168471 -1.6943116 2.7382812 4286547079
-0.85615247 -1.8971558 3.1132812 4288850348
-2.6973634 -1.9821534 3.2695312 4291678675
-1.1609864 -1.9087403 3.1484375 4290889932
-2.1324158 -1.8943787 3.1738281 4290691523
-3.3787963 -2.0229735 3.4433594 4290099643
-3.0254152 -2.0133545 3.4453125 4291547088
-1.7372682 -1.9946411 3.4316406 4292467934
-0.30813301 -0.84621584 1.4716797 4285890437
-1.7607423 -2.0138488 3.5214844 4292599777
0.26220393 -0.30908814 0.55566406 4286943635
-2.8683105 -2.0807006 3.7617185 4292270812
-0.68994153 -1.5264955 2.7597656 4285758078
-1.4849123 -2.0597169 3.8320315 4292007383
-0.83481461 -1.7510743 3.2578125 4282862413
-1.7994144 -2.0790529 3.8906252 4292599777
-4.0229735 -2.2086916 4.2070312 4288981934
-1.1382082 -2.0784669 3.9589844 4291153104
-4.0851316 -2.2344849 4.3867188 4288850348
-4.0733643 -2.2583618 4.4335938 4288850348
-3.3966796 -2.2187989 4.3828125 4290954952
-3.0691407 -2.2592287 4.546875 4291547088
-2.9314089 -2.2301149 4.4882812 4293191914
-4.5971193 -2.2913086 4.640625 4287929762
-2.0654299 -2.2375488 4.5898438 4292599777
-2.351294 -2.2496948 4.6445312 4293651435
-2.0422366 -2.2610474 4.6679688 4292007383
-2.288965 -2.2596192 4.6953125 4293322470
-4.2537355 -2.3495362 4.9140625 4288587176
-2.2748291 -2.2748291 4.7578125 4292731363
-0.8961916 -1.6323489 3.4140627 4287994009
-4.8279295 -2.3980837 5.0820312 4288192934
-2.1755373 -2.3153932 4.9726562 4291415246
-1.3787844 -2.2826538 4.9023438 4291547088
-4.0131469 -2.4046388 5.1992188 4289245106
-3.2397461 -2.3974123 5.1835938 4289903036
-3.279541 -2.3865967 5.1953125 4289771450
-3.5701172 -2.4131348 5.2890625 4289771450
-5.4467039 -2.5151978 5.5507812 4288521126
-3.101465 -2.4368653 5.453125 4290297795
-1.8232912 -2.3972902 5.4023438 4290692809
-5.665503 -2.5852296 5.8671875 4292469221
-4.5009646 -2.5284302 5.7382812 4288521899
-2.3318484 -2.4354858 5.5273438 4290429381
-1.6724123 -2.4062257 5.4609375 4290889932
-5.4526978 -2.6045532 5.9960938 4290297795
-0.42791757 -0.77700812 1.8017578 4287469463
-1.6790408 -2.4734254 5.7773438 4290692809
-4.8818846 -2.6346681 6.1992188 4289179830
-4.2738037 -2.6064453 6.1328125 4289179830
-4.213623 -2.6047854 6.1289062 4289179830
-2.3734376 -2.5217776 5.9335938 4290297795
-4.9675779 -2.3285522 5.5195312 4282599753
-3.5545659 -2.5938725 6.148438 4289706430
-6.3832026 -2.7415037 6.5468745 4292337635
-5.6129394 -2.7055178 6.4609375 4290364361
-4.3057132 -2.646631 6.3203125 4289311416
-6.4083252 -2.7762454 6.6796875 4291745241
-6.0274906 -2.745398 6.6054692 4292469221
-4.1389894 -2.6593506 6.3984375 4289443002
-1.9033821 -2.5570683 6.1523442 4290560967
-1.6067873 -2.5440798 6.1210938 4289508530
-6.4621582 -2.7875979 6.7578125 4290889932
-6.2256837 -2.7763186 6.7304688 4291284690
-4.6725097 -2.7485354 6.765625 4289179830
-3.6764529 -2.7310793 6.7226562 4291153104
-2.8471925 -2.662842 6.5546875 4292337635
-2.6896002 -2.6896 6.6718755 4292008670
-1.7144539 -2.6329107 6.5312505 4289113772
-6.838501 -2.8984377 7.2460938 4288981934
-5.9835453 -2.8578129 7.1445317 4289969602
-4.7223635 -2.7984376 6.9960942 4289311416
-2.1316409 -2.6750002 6.6875 4290560967
-7.309546 -2.9564087 7.4492188 4286414721
-6.8376703 -2.9238524 7.367187 4288850348
-2.7114871 -2.7548707 6.9414062 4291416533
-2.4580691 -2.7145629 6.8398433 4290692809
-6.7324219 -2.9454348 7.4804688 4287138954
-4.0678959 -2.8162355 7.1523442 4290101188
-2.207593 -2.7270265 6.9257808 4290560967
-4.9211912 -1.9653322 5.03125 4284244320
-4.5391116 -2.8656008 7.3359375 4289574844
-3.7076173 -2.825928 7.234375 4292337635
-2.7866702 -2.8091433 7.1914062 4291613655
-5.3666382 -2.8078616 7.2460938 4289048244
-5.0449219 -2.7927248 7.2070312 4289443002
-3.3363283 -2.8335938 7.3124995 4293060328
-1.8703128 -2.7609377 7.125 4289376944
-7.5133057 -3.0299563 7.8828125 4288258984
-6.3666992 -3.0119386 7.8359375 4290034622
-4.9475098 -2.8978271 7.539062 4289574844
-2.8677981 -2.8677981 7.4609375 4291613655
-5.8196774 -2.8861818 7.570312 4289771450
-1.94209 -2.8206544 7.398437 4289640116
-6.8314452 -3.0958986 8.1875 4290429381
-5.5409546 -2.902405 7.6757812 4289048244
-4.8273926 -2.9954591 7.921875 4289771450
-5.8246341 -3.0791018 8.2109375 4289179830
-4.4336429 -3.0058596 8.015625 4290429381
-7.351172 -3.2161379 8.6484375 4290034622
-6.8000002 -3.1609378 8.5 4291745241
-6.4779053 -3.1464114 8.4609375 4291745241
-4.004004 -3.0156741 8.109375 4291547088
-8.2998781 -3.2755373 8.8828125 4288192934
-6.1979737 -3.1660647 8.5859375 4290759375
-3.6470706 -3.0306642 8.21875 4292467934
-2.1000004 -2.9500003 8 4289640116
-9.0936279 -3.3563235 9.1796875 4282532418
-8.0716801 -3.3020511 9.03125 4285098595
-7.4572268 -3.2677736 8.9375 4290166209
-5.3145752 -3.1563723 8.6328125 4289376692
-5.1925297 -3.1478028 8.609375 4289508278
-4.193018 -3.1049562 8.4921875 4291153104
-8.5845699 -3.3871095 9.34375 4287139989
-6.295166 -3.245508 8.953125 4290890962
-6.2337646 -3.242676 8.9453125 4290364361
-5.1589847 -3.1832032 8.78125 4289639864
-2.8212893 -3.058594 8.4375 4291021518
-8.09021 -3.3831789 9.4140625 4288126368
-6.9894042 -3.3214114 9.2421875 4293127151
-5.8390141 -3.2596438 9.0703125 4289508278
-3.3694339 -3.1248782 8.6953125 4292007383
-2.4060063 -3.0743411 8.5546875 4290560967
-8.8146973 -3.4650881 9.7265625 4285165941
-7.4997072 -3.3927248 9.5234375 4290034622
-5.435596 -3.2786136 9.203125 4289245106
-2.9492924 -3.1422365 8.8203125 4291153104
-0.86334246 -1.2002566 3.3691409 4286020988
-6.863379 -3.4015872 9.6328125 4290101188
-6.742969 -3.4015872 9.6328125 4290364361
-6.0909424 -3.3574464 9.5078125 4289245106
-5.4041018 -3.3188236 9.3984375 4289245106
-4.1701665 -3.2498538 9.203125 4292205792
-3.7419436 -3.2277834 9.140625 4292731363
-4.9257326 -1.9632814 5.609375 4283852913
-6.7929444 -3.4425783 9.8359375 4289179830
-4.4787602 -3.3441408 9.5546875 4291745241
-3.6116214 -3.2621095 9.3203125 4292599777
-2.7252202 -3.2128909 9.1796875 4290692809
-8.3917971 -3.5283694 10.171875 4286218114
-7.8736815 -3.5527592 10.242188 4286942094
-7.7220216 -3.5419192 10.210938 4287073680
-6.6143556 -3.4795899 10.03125 4288850348
-5.5415044 -3.4172609 9.8515625 4288718762
-7.0413575 -3.552979 10.335938 4287665817
-4.859766 -3.4267583 9.96875 4290166209
-4.7240238 -3.4187016 9.9453125 4290429381
-3.5375981 -3.3837893 9.84375 4292139226
-2.869019 -3.3220217 9.6640625 4290889932
-9.6668453 -3.3556886 9.8515625 4280888110
-5.4271483 -1.9985106 5.8671875 4282205256
-9.1490965 -3.4035892 9.9921875 4283192408
-5.5878663 -3.520679 10.335938 4287994782
-5.1609621 -3.4940677 10.257812 4289113520
-4.0942388 -3.4328618 10.078125 4292731363
-2.9648442 -3.3663335 9.8828125 4291021518
-5.8410649 -3.6254888 10.742188 4286942094
-4.6572757 -3.5173831 10.421875 4290692809
-4.0283203 -3.4804692 10.3125 4292467934
-3.654346 -3.4620118 10.257812 4292007383
-0.70976573 -0.9703126 2.875 4288126621
-5.2634768 -3.6102052 10.796875 4287797147
-3.6360357 -3.5687013 10.773438 4291877083
-2.9659429 -3.5324712 10.664062 4291745241
-8.0244141 -3.3837895 10.3125 4287665817
-7.366333 -3.4376225 10.476562 4287863197
-3.007813 -3.5888677 10.9375 4292008670
-6.726758 -3.4632816 10.65625 4287797147
-4.0080328 -3.7552738 11.554688 4292007383
-3.773145 -3.7019534 11.390625 4292467934
-4.7834473 -1.5842288 4.921875 4281019951
-3.0331061 -3.7191653 11.554688 4291416784
-9.6819096 -3.155127 9.8984375 4282928466
-5.1892095 -3.5286622 11.070312 4286942094
-4.5380378 -3.8897462 12.203125 4290954952
-4.0464606 -3.8573732 12.101562 4292467934
-5.3228765 -3.9823003 12.617188 4289704884
-5.029151 -3.9995608 12.671875 4289836471
-3.3474615 -3.8861332 12.3125 4292666343
-3.2238286 -3.8762698 12.28125 4291284690
-5.2576904 -1.7944338 5.7421875 4282733402
-5.4012222 -4.0307627 12.898438 4289836471
-5.0617204 -4.0820322 13.062501 4289836471
-3.8390629 -3.9990239 12.796875 4292337635
-6.4546876 -3.3281984 10.757812 4287402645
-5.2373052 -4.181397 13.515625 4289573298
-4.5976567 -4.1378908 13.375 4291547088
-0.19738775 -0.34895328 1.1279297 4289771450
-5.8105474 -3.3496099 10.9375 4287336595
-4.4308109 -4.215723 13.765624 4292205792
-9.0528316 -3.0596681 10.09375 4284509813
-5.8642097 -4.4095221 14.546875 4289245106
-5.7278328 -4.4095221 14.546875 4289113520
-4.7927742 -4.3858404 14.46875 4292007383
-4.4482427 -4.3147955 14.234375 4292337635
-3.8779304 -4.2745366 14.101562 4292337635
-3.6893561 -4.2603273 14.054688 4290692809
-4.7314453 -1.4941409 4.9804688 4279901470
-5.2228518 -3.6867189 12.289062 4290166209
-4.4179692 -4.4179692 14.726562 4292337635
-3.8197029 -4.4179692 14.726562 4289376692
-0.44310006 -0.59912115 1.9970703 4289903036
-4.852735 -4.5644541 15.375001 4292337635
-4.2824712 -4.5203857 15.226562 4292469221
-4.0195322 -4.5458994 15.312501 4290429381
-8.6540041 -3.0017581 10.21875 4286547079
-6.4443851 -3.1715822 10.796875 4288126368
-5.5494146 -3.9518557 13.453125 4290034622
-6.3332038 -4.8009772 16.34375 4288981934
-6.1054692 -4.7826176 16.28125 4288850348
-5.992188 -4.773438 16.25 4289113520
-5.6601567 -4.7504888 16.171875 4289771450
-5.5483403 -4.7413092 16.140625 4290034622
-5.2152352 -4.7137699 16.046875 4291613655
-4.2947764 -4.6403332 15.796876 4292008670
-5.8421636 -4.2117925 14.492188 4289903036
-5.3813481 -4.8588872 16.71875 4291613655
-8.3983889 -2.9603519 10.296875 4286876044
-6.723536 -5.1121101 17.78125 4288587176
-6.1687508 -5.0671883 17.625 4289508278
-4.7308602 -4.945899 17.203125 4291877083
-9.0314941 -2.8837404 10.140625 4285168773
-7.999805 -2.9592776 10.40625 4287534231
-6.7138677 -3.05481 10.742188 4287402645
-6.7175789 -5.269825 18.53125 4288850348
-6.2696295 -5.2342777 18.40625 4289903036
-5.2584968 -5.1454105 18.09375 4292008670
-4.824903 -5.1054201 17.953125 4291284690
-7.3716311 -2.9750981 10.578125 4288521126
-6.1708012 -4.4077153 15.671875 4290428351
-6.2988286 -4.5351567 16.125 4289639864
-7.0664067 -5.2998056 18.84375 4288981934
-6.0412607 -5.3833017 19.140625 4291284690
-5.3412118 -5.2250986 18.578125 4291745241
-5.0510263 -5.3481455 19.015625 4290889932
-5.3554206 -3.5569587 12.789062 4291218124
-7.4441414 -5.6146488 20.1875 4288981934
-6.4596686 -5.6363773 20.265625 4290889932
-5.937501 -5.562501 20 4291745241
-5.4527354 -5.514698 19.828125 4291613655
-5.1145515 -5.4842777 19.71875 4289903036
-5.020093 -1.5833986 5.7578125 4286088845
-6.7859378 -2.9562502 10.75 4287402645
-7.8787117 -5.9769535 21.734375 4288850348
-7.4523935 -5.9082041 21.484375 4289245106
-7.1472664 -5.8781252 21.375 4289771450
-6.6210947 -5.8265629 21.1875 4291021518
-5.601759 -5.7320318 20.84375 4291284690
-7.6381354 -5.6796389 20.890625 4289245106
-8.1325207 -6.2063971 22.828125 4288981934
-6.4527841 -6.0364752 22.203125 4291219926
-5.9208994 -5.989747 22.03125 4291153104
-5.3303466 -2.9961424 11.148438 4286942094
-7.0921865 -6.3534179 23.640623 4291284690
-7.0090342 -6.3450203 23.609375 4291284690
-6.350831 -6.277833 23.359375 4291284690
-8.968751 -6.8066416 25.625 4289113520
-8.7391605 -6.8149419 25.656248 4288981934
-7.1049328 -6.6364756 24.984375 4291416533
-8.0859385 -5.906251 22.5 4289508278
-9.453126 -7.218751 27.5 4288981934
-7.2131844 -6.9644523 26.531248 4291021518
-7.2016616 -7.0341821 26.796877 4290889932
-5.8258791 -2.8612309 11.03125 4287665817
-4.918458 -2.9159431 11.242188 4290166209
-5.5937262 -3.5441165 13.664062 4291415246
-9.2897472 -6.9463873 26.78125 4289245106
-9.4199715 -7.3070812 28.171875 4289113520
-8.024415 -7.4002919 28.531248 4291153104
-6.9488525 -2.752686 10.742188 4288718762
-6.914063 -4.7246103 18.4375 4290034622
-7.1760263 -4.8845224 19.296875 4290429381
-9.1030293 -7.1586938 28.281252 4290166209
-5.2608767 -1.4462893 5.7851562 4281943629
-8.3972654 -2.59375 10.375 4286350472
-7.7453613 -2.6367192 10.546875 4287666590
-6.3695316 -4.109376 16.4375 4291086538
-8.0410166 -5.593751 22.375 4290560967
-9.2409658 -6.6601558 26.640623 4289771450
-0.71315908 -0.73144537 2.925781 4290560967
-9.4738283 -2.3684573 9.59375 4284375909
-7.106348 -2.6481209 10.726562 4288257954
-5.442481 -2.7561283 11.164062 4288126368
-4.925684 -2.8197761 11.421875 4291021518
-6.8121591 -4.447608 18.015625 4290823365
-5.44629 -2.7231455 11.171875 4288257954
-5.195899 -2.7383795 11.234375 4287863197
-7.7767587 -5.2292004 21.453125 4291021518
-9.7271481 -2.4006104 9.9765625 4280494381
-9.121069 -2.3178959 9.6328125 4283720040
-9.0783701 -6.2976084 26.171875 4290560967
-5.1010256 -1.3322268 5.609375 4281285439
-8.4700193 -2.3323245 9.8203125 4286614417
-9.5551767 -6.601759 27.796875 4290692809
-9.0732422 -2.3876958 10.1875 4281022012
-8.7832518 -2.4041753 10.257812 4282929751
-8.0925293 -2.3254399 9.921875 4286614417
-8.1807861 -2.4118657 10.429688 4284837491
-0.30360115 -0.33038938 1.4287109 4291021518
-0.2459107 -0.30328983 1.3115234 4286876044
-6.6031499 -2.4719486 10.835938 4285429370
-5.9562259 -3.4236572 15.007812 4291415246
-8.8046885 -5.7387705 25.15625 4291153104
-8.4841328 -6.5193868 28.578127 4290364361
-7.9019542 -6.5550284 28.734373 4290496455
-7.7175293 -2.2587895 10.039062 4286088845
-5.1298833 -2.7158203 12.070312 4291745241
-6.2181644 -3.6105471 16.046875 4290954952
-6.4693365 -3.8179693 16.96875 4290889932
-8.2068863 -6.4933605 28.859375 4289641146
-7.5755873 -6.4933605 28.859375 4290495947
-0.17630011 -0.23950201 1.0644531 4283915101
-4.6921997 -1.1293092 5.0898438 4280429357
-5.0516357 -1.2367797 5.5742188 4281548869
-7.6981201 -2.2308841 10.054688 4284509041
-7.226758 -2.2603517 10.1875 4285298299
-5.6303716 -3.0750501 13.859376 4291416533
-8.3425789 -5.2417974 23.625 4290889932
-9.3208017 -6.3026381 28.40625 4290759375
-8.8220224 -6.3269053 28.515625 4290627789
-5.8406253 -2.4335942 11.125 4287994782
-8.1826181 -5.024415 22.96875 4290889932
-8.6242199 -5.3901377 24.640625 4290692809
0.61230463 -0.15039065 0.6875 4281943625
-8.8816404 -2.1427736 9.9375 4282206029
-7.2322998 -2.1983647 10.195312 4285496451
-5.2248049 -2.4358892 11.296875 4288126368
-5.1470709 -2.4325199 11.28125 4288718762
-5.9345222 -3.224268 14.953125 4290034622
-6.438282 -3.6117191 16.75 4289903036
-0.87703878 -0.74710721 3.464844 4289771450
-9.4751949 -2.0519533 9.65625 4283783772
-8.3410406 -2.1731448 10.226562 4279967779
-8.930666 -6.0728536 28.578127 4289969602
-8.809474 -6.1126966 28.765625 4289443002
-7.6906753 -6.1525402 28.953125 4289969854
-6.9806643 -2.2704105 10.84375 4287994782
-5.260108 -2.3652835 11.296875 4288521126
-5.1844487 -2.5730228 12.289062 4290297795
-5.2638187 -2.6319094 12.570312 4290429381
-5.5169692 -2.8216565 13.476563 4290429381
-6.8847661 -3.8439951 18.359375 4290166209
-7.4496102 -4.266016 20.375 4290429381
-9.4101591 -5.7316432 27.375002 4290166209
-9.50879 -5.9541011 28.437498 4290166209
-8.2359619 -2.0512209 9.9453125 4285035642
-7.9940186 -2.054688 10.273438 4282930527
-7.4022465 -2.0687504 10.34375 4283458416
-9.7467775 -1.9556646 10.09375 4281811785
-0.52850354 -0.45300305 2.4160156 4290166209
-8.760498 -1.8494387 10.382812 4279968038
-9.7528324 -1.7732425 10.132812 4281811785
-8.7152348 -1.821094 10.40625 4283591290
-9.7111568 -1.7174077 9.9921875 4280032800
-9.2855225 -1.6135502 9.7421875 4282995029
-7.6152835 -1.7248297 10.414062 4281550158
-9.7586422 -1.6529303 10.171875 4282601044
-8.5759277 -1.6516604 10.164062 4279901988
-8.4000006 -1.7062502 10.5 4280232499
-7.9397464 -1.6460447 10.328125 4284054413
-8.9402828 -1.5814943 10.328125 4281482823
-7.7279301 -1.4370127 10.21875 4284051065
-7.4589844 -1.4721684 10.46875 4282142811
-8.9942875 -1.2981448 9.890625 4280823347
-8.2390871 -1.32583 10.101562 4282666839
-7.6308107 -1.3843508 10.804688 4283786864
-9.4445314 -1.2031255 9.625 4285033586
-8.3396482 -1.2283206 10.34375 4282337363
-8.9677486 -1.1481204 9.9296875 4282271055
-8.9437504 -1.1490235 9.9375 4282336848
-8.5892582 -1.1598635 10.03125 4282995293
-6.6694827 -0.92771006 8.0234375 4285101186
-8.2313232 -1.2330327 10.664062 4284246906
-7.5537357 -1.231226 10.648438 4282930527
-6.3545165 -0.83612108 7.6445312 4284969342
-6.0785155 -0.84423876 7.71875 4284706433
-5.7588377 -0.85406506 7.8085933 4283522668
-5.5316162 -0.86047411 7.8671875 4283982959
-6.9043455 -0.78028584 7.5664062 4282929243
-6.9091182 -0.68853772 7.5976558 4283258209
-9.503809 -0.83584023 9.90625 4282862159
-9.77666 -0.7769537 10.359375 4279967008
-9.1587887 -0.74765682 9.96875 4280494127
-9.5102053 -0.65266132 9.9453125 4282862159
-5.7194095 -0.42458534 7.9921875 4280692539
-6.6325927 -0.38730478 7.7460938 4280429111
0.21405025 -0.026756316 0.57080078 4285890690
-6.3057857 -0.31896985 7.851562 4284311928
-5.9997802 -0.32230282 7.9335938 4284311928
-9.4757814 -0.3340826 9.71875 4284244838
-9.7324219 -0.35449266 10.3125 4280493864
-6.9257812 -0.24047899 7.6953125 4280297264
-6.7780275 -0.21709013 7.71875 4284247684
-9.5262451 -0.22302294 10.195312 4281744189
-8.8713379 -0.12236357 9.7890625 4284113514
-5.9997802 -0.099170208 7.9335938 4284839036
-8.7208004 -0.090527534 9.65625 4283257693
-6.7052126 -0.072619915 7.7460938 4284642434
-8.9508791 -0.059277534 9.484375 4286021507
-5.7166991 -0.050147057 8.0234375 4284509560
-9.0726566 -4.7683716e-07 9.1875 4284968562
-8.015625 0.083495617 8.90625 4284112742
-6.8572273 0.072949052 7.7812505 4281680466
-6.7095218 0.14692354 7.8359375 4284509307
-8.1248293 0.18405724 8.4140625 4287534231
-0.033517484 0.011172473 0.51074219 4284377193
-8.0493164 0.23071241 8.203125 4287665817
-7.4320312 0.23225069 8.2578125 4286678412
-5.6221194 0.27983379 8.140625 4284310378
-6.6313481 0.29472601 7.8593755 4282270797
-6.1689696 0.29970646 7.9921875 4285362814
-6.8534913 0.31706524 7.8046875 4283257435
-6.90874 0.36108351 7.703125 4288849066
-5.1862788 0.42626894 7.5781245 4288389540
-0.38662723 0.062866151 1.0058594 4287337877
-2.9092774 0.49269998 7.507812 4287600793
-0.30153811 0.037060529 0.5390625 4287600793
-5.7763667 0.51098573 7.1093745 4289441712
-6.7792969 0.5214839 6.953125 4289310126
-4.8210449 0.53320253 7.1093745 4287336595
-2.7866702 0.56182814 7.1914062 4286153346
-6.7234864 0.55319786 6.8085938 4289310126
-0.53529674 0.20772696 2.5566406 4288258984
-4.6538086 0.5817256 6.8945312 4286613129
-6.1214113 0.63044405 6.5078125 4289310126
-2.62168 0.65541935 6.765625 4286219140
-5.090332 0.65156221 6.515625 4288849318
-5.5456781 0.68829334 6.2929683 4288980904
-2.5014408 0.71179152 6.5078125 4285693310
-4.266211 0.71103477 6.3203125 4287073680
-6.0254884 0.71000957 6.140625 4289046954
-4.2097168 0.72446251 6.265625 4286744715
-5.5054688 0.72641563 6.1171875 4288849318
-4.4666018 0.73476553 6.1875 4288126368
-4.9702148 0.7426753 6.09375 4288586147
-4.1336064 0.74981654 6.1523442 4286876044
-2.4098513 0.76409864 6.2695312 4285890690
-4.9371095 0.76674795 5.984375 4288454561
-5.4376221 0.77416945 5.8984375 4288717733
-0.26846015 0.19110715 1.4560547 4288390569
-4.3230472 0.81738234 5.8125 4287994782
-3.8714356 0.83217764 5.7890625 4286876044
-4.2834473 0.8496089 5.6640625 4287994782
-3.892859 0.86312246 5.6367188 4287994782
-5.328125 0.85937452 5.5 4288257954
-5.2368164 0.88958693 5.3710938 4288257954
-2.1192141 0.9206419 5.5585938 4286350725
-0.23208015 0.21964717 1.3261719 4289771450
-3.6785157 0.92382765 5.375 4288257954
-4.2062502 0.93654776 5.2578125 4288126368
-4.6660032 0.97404766 5.0273438 4288389540
-3.3280275 1.0046873 5.0234375 4287336595
-4.0389404 1.0360103 4.8046875 4288849318
-1.8596071 1.0604367 4.9179688 4286088069
-4.6456056 1.0356441 4.734375 4288717733
-0.2858277 0.33346546 1.5244141 4287337624
-3.1526368 1.0608397 4.78125 4287599252
-1.7828004 1.105041 4.7148438 4286680719
-0.55369884 0.63634014 2.6445312 4288653485
-3.4438844 1.105444 4.5351562 4289310126
-3.934778 1.1123042 4.4492188 4289046954
-0.1771546 0.29053342 1.1337891 4289245106
-2.8223877 1.1692748 4.3007812 4288980904
-1.6127931 1.1961546 4.3007812 4286614670
-3.863086 1.1945066 4.0664062 4289178540
-2.815027 1.2082763 4.1132812 4290361785
-1.5629884 1.2243404 4.1679688 4286812049
-2.6304688 1.2267089 4.046875 4288322975
-3.3309815 1.2226071 3.9921875 4289835441
-0.20945746 0.39125049 1.2646484 4288916657
-3.7648439 1.2509763 3.8125002 4289572269
-3.2588866 1.2580259 3.8339841 4289967027
-2.734973 1.2650754 3.8554685 4290624957
-1.4575197 1.2874751 3.8867188 4287733408
-2.7507384 1.2741516 3.8105466 4290624957
-3.2473938 1.280334 3.7246094 4290098613
-2.739331 1.2877192 3.7460938 4290624957
-3.367511 1.3089659 3.5800781 4289967027
-1.2999879 1.3660884 3.5253906 4286483084
-2.1926515 1.3650327 3.4394531 4287599252
-1.2488528 1.3970211 3.386719 4286812049
0.80043632 0.35251004 0.84814453 4285893523
-3.0184512 1.3939021 3.2089846 4290230199
0.62332147 0.34906 0.79785156 4284774012
-3.0021729 1.4133604 3.1191406 4290230199
-2.0137756 1.4559691 3.0253906 4290888129
0.30838922 0.34832454 0.70996094 4283327080
-0.5728761 1.4806638 2.8203125 4287272348
-2.4457154 1.4970212 2.7851562 4290493371
-1.0163575 1.520117 2.828125 4285693310
-6.5196533 4.0261717 7.3203125 4290493371
-1.7015625 1.5210936 2.75 4287270286
-0.30880129 0.34834284 0.60253906 4286679691
-0.31723636 0.66298819 1.140625 4288785071
-0.1893128 0.75338733 1.2363281 4287008403
-2.3748779 1.5515866 2.5332031 4290230199
-0.20004278 0.79216909 1.2802734 4286877073
-1.6862427 1.568048 2.5214844 4290493371
-0.86901867 1.5996091 2.4609375 4285694083
-2.0653687 1.5829465 2.4121094 4290230199
0.24482416 0.47167957 0.71875 4285957771
-0.32212529 0.78178704 1.1582031 4284574319
-0.34265757 1.2435147 1.7685548 4286614417
-0.3566407 1.2649595 1.783203 4287864741
-1.7735351 1.626904 2.234375 4289835441
-1.3429688 1.6367431 2.2382812 4288454561
-0.78544933 1.6480405 2.2441406 4284904310
-0.30650032 1.2690183 1.720703 4284969334
-0.29445809 1.2409301 1.6826172 4285298299
