# .PCD v0.7 - Point Cloud Data file format
VERSION 0.7
FIELDS x y z rgb
SIZE 4 4 4 4
TYPE F F F U
COUNT 1 1 1 1
WIDTH 1080
HEIGHT 1
VIEWPOINT 0 0 0 1 0 0 0
POINTS 1080
DATA ascii
-2.7731445 -2.2508056 3.0390625 4291218376
-0.78748184 -2.1452088 2.8964844 4292532954
0.21562481 -2.1023438 2.875 4293454056
-1.7422793 -2.19433 3.0136721 4289508278
0.26656476 -2.08656 2.9414062 4292993505
-2.7698669 -2.2277222 3.1542969 4290166461
0.91664416 -0.93316042 1.3212891 4287862423
-0.7298646 -2.1137633 3.0332029 4293322470
-2.7188966 -2.1933105 3.234375 4290560967
-1.789673 -2.1476073 3.1816406 4289771450
1.20509 -1.9893554 3.0605469 4290823365
1.2660642 -1.9825196 3.140625 4290691523
-3.0889158 -2.1644163 3.4804685 4292928486
-3.3767579 -2.1849608 3.53125 4289310126
-2.1426635 -2.1101987 3.4628904 4289639864
-2.5008426 -2.1246095 3.5410159 4289771450
-1.6956544 -2.0810304 3.5234375 4289245358
-1.1187379 -2.0400512 3.5097654 4291086538
0.1962156 -1.9621582 3.4882812 4291810261
1.0742185 -1.9335938 3.4375 4290823365
0.90403736 -0.71685791 1.2744141 4288191389
0.60805643 -1.9436097 3.4746094 4291547088
1.683398 -1.8884277 3.4531248 4290692809
1.8323971 -1.8755127 3.4492188 4290889932
-0.72482318 -1.9788818 3.6816406 4291415246
-3.7874999 -2.0999999 4 4287469210
-1.7836673 -2.0020754 3.8828127 4289376692
-0.78310567 -1.9577637 3.796875 4291086538
-2.2752931 -2.0156128 3.957031 4288192934
-1.7106935 -1.9917359 3.9101562 4289771450
-0.72363299 -1.9417481 3.859375 4291086538
-3.7066162 -2.0664062 4.1328125 4287798176
-2.78667 -2.0161622 4.109375 4288981934
1.2265193 -1.8457336 3.8105466 4290954952
-3.7430909 -2.0465822 4.3085938 4287469210
1.971301 -1.7942383 3.7773438 4292007383
0.6961484 -1.8441834 3.9082031 4286020735
1.2829465 -1.8154908 3.8730469 4290889932
-4.2984495 -2.0302124 4.4804688 4286153093
-0.91174334 -1.888611 4.1679688 4290823365
2.2294185 -1.7664796 3.8984375 4292270812
2.2595761 -1.7533326 3.9511721 4292270812
-2.7774904 -1.9483887 4.421875 4288258984
0.71827364 -1.7461487 3.9628906 4289639864
0.75468111 -1.7444276 3.9589844 4288257954
-4.0207033 -1.9960939 4.5625 4286679438
-2.6902344 -1.9414064 4.4375 4288521126
0.22225316 -1.8303224 4.1835938 4290823365
2.2081783 -1.7341065 3.9921875 4292139226
-2.0566895 -1.8876466 4.5078125 4288850348
-1.2885134 -1.8565675 4.4335938 4289771450
2.2708981 -1.7160767 4.1289062 4292731363
1.2799923 -1.7418458 4.2226562 4290429381
-4.7680664 -1.9829103 4.84375 4285626749
-1.7761232 -1.861377 4.546875 4288258984
-0.98266625 -1.8249513 4.4921875 4289903036
-0.44726586 -1.8030397 4.4726562 4290297795
0.32871065 -1.7668214 4.3828125 4290166209
-3.7025146 -1.9192628 4.8359375 4287929762
-2.658926e-07 -1.7704346 4.4609375 4290429381
0.57005584 -1.7379762 4.4492188 4290429381
0.80642056 -1.7379762 4.4492188 4290429381
1.8460934 -1.6832032 4.34375 4291415246
-1.7395754 -1.8287842 4.7578125 4288521899
0.23144503 -1.73584 4.6289062 4289903036
2.5497799 -1.6450197 4.3867188 4292664540
-3.7723024 -1.8782594 5.0507812 4288521126
-4.6905518 -1.9085695 5.1757812 4286548108
-0.77377951 -1.7558839 4.7617188 4289903036
-2.3958986 -1.4910645 4.078125 4280887851
-0.72480494 -1.7516115 4.8320312 4289903036
1.2776364 -1.6652344 4.59375 4290166209
-2.2204835 -1.7826418 5.0039062 4285627780
0.22540253 -1.6980348 4.8085938 4290166209
-2.8820925 -1.8033204 5.1523438 4288587176
1.219189 -1.6354982 4.7578125 4290166209
-5.1317625 -1.8707764 5.4921875 4286153093
-2.7398438 -1.7882814 5.25 4289311416
-1.7084475 -1.740381 5.109375 4289179830
-0.72211939 -1.7111084 5.0234375 4289903036
-5.3946657 -1.8733888 5.5507812 4285363839
-3.7040162 -1.8101075 5.3632812 4289245106
-0.77100855 -1.6993654 5.0351562 4289903036
-2.5138917 -1.7580812 5.2578125 4287140242
0.88641346 -0.39982915 1.2070312 4286809736
-4.565259 -1.8226321 5.5546875 4287666590
-3.1884522 -1.7713625 5.3984375 4289177511
-3.8027344 -1.7803712 5.53125 4289245106
-3.7294312 -1.7866578 5.5507812 4290034622
-2.7876344 -1.7444093 5.4726562 4291613655
-2.6111574 -1.7294679 5.4257812 4288718762
-1.8921877 -1.6894534 5.40625 4289376692
1.2814449 -1.5820315 5.0625 4290297795
-5.7281251 -1.8175783 5.875 4280429367
-4.7695312 -1.7885745 5.78125 4288061348
-3.3130372 -1.7354004 5.609375 4293322470
-2.3729494 -1.249585 4.0390625 4285098345
-1.7100466 -1.6761842 5.4179688 4289179830
0.27683073 -1.612134 5.2109375 4290166209
2.2378657 -1.5336428 5.0078125 4290889932
-5.595984 -1.8033571 5.9492188 4285431949
2.2833247 -1.511719 5.0390625 4290889932
-1.008301 -1.6235354 5.46875 4290034622
0.28367886 -1.5852664 5.3398438 4290297795
-4.7283087 -1.7567631 5.9804692 4288981934
-0.28907502 -1.5984132 5.4414062 4292599777
-3.7577634 -1.7130982 5.8945308 4290889932
-0.17016633 -1.5825441 5.4453125 4293191914
-4.7715454 -1.7351074 6.0351562 4288981934
-2.3480837 -1.3785524 4.8476562 4283915101
-2.7228148 -1.6629273 5.8476558 4290627789
0.81152308 -1.5385134 5.4101562 4290297795
-5.7262206 -1.7513185 6.296875 4282930789
-4.7253418 -1.716553 6.171875 4289376692
-3.7226076 -1.6817873 6.046875 4292467934
-1.7209475 -1.6122561 5.796875 4289771450
1.6210079 -1.4873173 5.3476562 4290692809
-2.4902711 -1.2669802 4.6601562 4283126098
-2.7641604 -1.6248782 5.9765625 4292205792
-4.7609253 -1.6849365 6.2695312 4289376692
-1.7660159 -1.5820558 5.8867188 4289903036
1.9611812 -1.4539797 5.4101562 4290889932
2.9572506 -1.4121706 5.3164062 4291877083
-3.6960206 -1.6231203 6.2578125 4290166209
0.23454592 -1.4974854 5.7734375 4291810261
-0.78186065 -1.5078738 5.9570312 4291153104
0.29472628 -1.4552125 5.8945308 4291547088
1.2401363 -1.4225099 5.8359375 4290429381
2.2781246 -1.3882327 5.6953125 4292270812
-4.7230468 -1.60918 6.6875 4289639864
-2.9046023 -1.542444 6.4101562 4292008670
-0.71543002 -1.4695315 6.1875 4292467934
2.2748287 -1.3721194 5.7773438 4292139226
-1.7643558 -1.4868166 6.34375 4290166209
1.2954102 -1.3879396 5.9218745 4290429381
3.2985225 -1.3229373 5.6445312 4291086538
-3.9844117 -1.5389528 6.7460938 4288521126
-4.7585449 -1.5427248 6.953125 4289376692
-1.3965091 -1.4369874 6.4765625 4290429381
-4.0790038 -1.5107421 6.9062495 4288192934
-0.78457063 -1.4082034 6.4375 4291416533
-0.27839392 -1.391968 6.3632812 4293191914
-3.3168333 -1.4765257 6.8476558 4290429381
3.2449336 -1.2794313 5.9335938 4292467934
3.2972527 -1.2710084 5.8945308 4291021518
-5.6930542 -1.3488772 6.3476562 4287733676
-2.2939818 -1.4053222 6.6132808 4289706430
0.41938484 -1.3580076 6.3906245 4291284690
1.2906734 -1.3297853 6.2578125 4290429381
-4.7167974 -1.5048834 7.1875005 4289113520
-1.5255862 -1.4001956 6.6875 4290297795
1.1413082 -1.3184085 6.296875 4290429381
3.1165521 -1.2578859 6.0078125 4294047223
0.89724112 -0.21019292 1.0039062 4282533706
-5.7512693 -1.2955079 6.28125 4284247684
-5.7221437 -1.2869875 6.3359375 4288128434
2.2209957 -1.2663577 6.234375 4291153104
2.2865844 -1.2703246 6.2539058 4291416533
3.2476802 -1.2417605 6.1132812 4292467934
2.0871334 -1.2601564 6.3007812 4291021518
-5.7548461 -1.2373903 6.2851562 4286287780
-5.0873656 -1.4634891 7.4335938 4287798176
-0.76289099 -1.3350589 6.78125 4291416533
0.24975592 -1.3112181 6.6601558 4291745241
1.9076529 -1.2449957 6.4257817 4291021518
-5.7242427 -1.2040647 6.3164058 4288456627
-5.6109376 -1.2867191 6.75 4287469731
-2.7274904 -1.0022707 5.2578125 4287273377
-0.71301305 -1.3179934 6.9140625 4291416533
3.0519404 -1.2010865 6.3007812 4292599777
3.3789058 -1.1914065 6.25 4291021518
-5.7138062 -1.4465337 7.7148438 4282206031
-2.564405 -1.3264166 7.0742192 4289443002
1.2322872 -1.2322879 6.6835938 4290429381
1.2934321 -1.2308474 6.6757812 4290429381
-5.6152344 -1.4160157 7.8124995 4285430920
-4.6702886 -1.3891119 7.664063 4288521126
-2.473938 -0.81066918 4.4726562 4278848783
-2.8593264 -1.3374271 7.3789062 4290166209
-1.7414799 -1.2949466 7.1445317 4290166209
0.23699908 -1.249634 6.8945312 4291416533
3.4549308 -1.1583008 6.3906245 4291021518
3.7666008 -1.1498048 6.34375 4290691523
-3.2846682 -1.3373295 7.507812 4290166209
-2.2011724 -1.2802743 7.1875005 4288390569
2.2504389 -1.1877322 6.6679688 4291021518
-3.8281257 -1.3398446 7.6562505 4288588465
-2.6279299 -1.279688 7.3124995 4290101188
0.28580278 -1.2311525 7.0351562 4291416533
-5.7645264 -1.0675051 6.2109375 4282865514
-2.380249 -0.70764184 4.1171875 4282731342
-1.4205815 -1.2601933 7.3320312 4290297795
-0.69893837 -1.2400517 7.2148438 4291284690
1.2949219 -1.1870116 6.9062495 4290429381
-4.5955076 -1.3341795 7.9062495 4288061348
-1.0305179 -1.2366214 7.328125 4291021518
-1.5170902 -1.2370119 7.46875 4290166209
-3.9133546 -1.2879395 7.9257812 4289311416
-2.7436159 -1.262549 7.7695308 4290297795
-0.34405512 -1.1927243 7.3398433 4292139226
1.2386714 -1.1501956 7.078125 4290297795
3.2273431 -1.0968752 6.75 4291021518
-5.5975585 -1.1511111 7.2226562 4286943129
-2.5528932 -0.76138926 4.7773438 4279507485
-4.7680664 -1.2817388 8.203125 4288653485
0.59382325 -1.1419679 7.3085933 4291021518
-2.4727297 -0.66573501 4.3476562 4282402635
-2.1804569 -1.2004758 7.8398433 4289903036
-1.7055668 -1.1938968 7.796875 4289771450
-5.7052736 -1.2796879 8.53125 4282863704
-4.7760501 -1.2527347 8.3515625 4287930791
-4.1468511 -1.2363286 8.2421875 4289312445
0.23425199 -1.1244148 7.4960942 4291416533
0.94542187 -1.1068363 7.3789062 4290297795
2.2996457 -1.0716799 7.1445317 4291021518
2.0617182 -1.0648441 7.25 4290889932
-5.5910029 -1.0944091 7.6132808 4286087563
-4.8078127 -1.2218752 8.5 4286482831
-3.9707034 -1.2016606 8.359375 4290166209
-2.750098 -1.1713381 8.1484375 4290954952
-0.75570112 -1.1213627 7.8007812 4291284690
2.2310786 -1.0472417 7.2851562 4290889932
-4.3562503 -1.195313 8.5 4288917687
-2.36814 -1.1458745 8.1484375 4290166209
-5.6283693 -1.0720706 7.796875 4285890184
-0.74816936 -1.0973148 7.9804688 4291416533
3.4627433 -0.98935521 7.195312 4290692809
-5.6350346 -1.1936283 8.8828125 4285430148
-2.9267581 -1.1337895 8.4375 4293060328
0.72656202 -1.0414066 7.75 4290429381
-4.9746094 -1.1607423 8.84375 4288456879
-2.729651 -0.68649912 5.2304688 4287075741
-3.7059574 -1.1361332 8.65625 4291613655
0.24841259 -1.0433354 7.9492188 4291416533
0.80526119 -1.0248777 7.8085933 4289903036
1.3025385 -1.0130863 7.71875 4290034622
3.3099604 -0.96540546 7.3554688 4290889932
4.0219474 -0.9489994 7.2304688 4290495947
4.2884517 -0.94797373 7.2226562 4290034622
-5.6260257 -1.1591311 9.046875 4285627783
-3.6738772 -1.0966802 8.7734375 4292337635
-2.7271976 -1.0800786 8.640625 4292270812
-2.0396733 -1.0595708 8.4765625 4289903036
2.4545283 -0.93505907 7.4804688 4290627789
-0.89067429 -1.0216556 8.3828125 4291416533
2.8723016 -0.91073036 7.4726562 4290496455
4.3120475 -0.89930439 7.3789062 4290297795
-1.7440189 -1.0195804 8.5859375 4289639864
-4.634253 -1.0650148 9.2109375 4289443002
-0.68745166 -0.97829628 8.4609375 4292467934
1.3139642 -0.934937 8.0859375 4290034622
-5.5935059 -0.9588871 8.5234375 4286614164
-4.8430181 -1.0502934 9.3359375 4288325293
0.078734845 -0.9448247 8.3984375 4293389293
-4.3798833 -1.0219731 9.34375 4289771450
0.26538032 -0.92883348 8.4921875 4292270812
-3.847852 -0.99111366 9.328125 4290034622
-2.7182622 -0.97285175 9.15625 4291416533
-1.7564945 -0.94794941 8.921875 4289508278
0.91943306 -0.89316416 8.40625 4290889932
1.8749018 -0.87324238 8.21875 4290429381
-3.2884769 -0.96035194 9.3125 4293191914
-1.6962895 -0.93295956 9.046875 4289508278
1.3397455 -0.86689472 8.40625 4290297795
-2.7875979 -0.51562524 5.15625 4285495678
1.8861322 -0.83828163 8.3828125 4290297795
3.2976067 -0.81171894 8.1171875 4290628041
3.7705069 -0.77343762 7.7343745 4290101188
3.938427 -0.79765654 7.9765625 4290101441
-4.6990724 -0.9520998 9.828125 4287994782
-2.91731 -0.91350126 9.4296875 4291678675
-2.7110355 -0.91350126 9.4296875 4290034622
3.0205071 -0.78029823 8.0546875 4290101441
-1.682227 -0.87011766 9.28125 4288981934
2.7506096 -0.78588915 8.3828125 4292798186
2.7276361 -0.77197313 8.234375 4292666343
4.3083978 -0.75585985 8.0625 4290233027
-3.6679692 -0.88642597 9.78125 4288981934
-1.2181646 -0.84111357 9.28125 4289903036
-1.0100102 -0.83686543 9.234375 4290429381
3.2836907 -0.7618165 8.40625 4290364613
4.1193352 -0.74199247 8.1875 4290101441
-5.7097659 -0.85039091 9.71875 4282271309
-0.66596729 -0.81074238 9.265625 4291678675
-0.49016166 -0.80732441 9.2265625 4293191914
0.25642034 -0.79775429 9.1171875 4292731363
2.2845697 -0.76152372 8.703125 4290889932
4.6010733 -0.71572304 8.1796875 4290364613
-5.7668457 -0.52075243 6.171875 4288588213
-2.7048833 -0.82990742 9.8359375 4288850348
-0.11562555 -0.78046894 9.25 4293191914
4.1979485 -0.70400429 8.34375 4289969854
-5.7089849 -0.80234432 9.875 4283258462
-5.6301026 -0.84614277 10.414062 4284310893
-1.7572758 -0.78774452 9.6953125 4288389540
0.23183537 -0.75346708 9.2734375 4292599777
0.46132755 -0.74965858 9.2265625 4292467934
3.282006 -0.70522499 8.6796875 4290891214
4.3344717 -0.68300819 8.40625 4289969854
-4.9754887 -0.81298876 10.40625 4286218114
-4.5493169 -0.81237841 10.398438 4287205266
-1.6905522 -0.76843309 9.8359375 4288389540
1.0353509 -0.71899462 9.203125 4291810261
5.0109367 -0.6524663 8.3515625 4290166209
-3.8171391 -0.77636766 10.351562 4287797147
-3.696094 -0.77812529 10.375 4287863197
-2.7527349 -0.75937557 10.125 4288587176
0.44201601 -0.70722675 9.4296875 4292467934
2.2978997 -0.68085957 9.078125 4290429381
-5.7073731 -0.7333498 10.203125 4281547329
-2.4793949 -0.7311039 10.171875 4288126368
-1.6967291 -0.72268105 10.054688 4287665817
0.97163022 -0.67719746 9.421875 4292139226
1.9573236 -0.66203642 9.2109375 4290034622
-1.8394048 -0.69770527 10.148438 4287534231
-0.74296927 -0.68105507 9.90625 4289245106
1.4721674 -0.64775419 9.421875 4291218124
-5.6596437 -0.47731972 7.2734375 4287863197
-5.601758 -0.63933134 9.7421875 4287140765
3.1733644 -0.60036612 9.1484375 4292008670
-2.004102 -0.64648485 10.34375 4288257954
1.0638422 -0.60791063 9.7265625 4292599777
3.5797112 -0.57275438 9.1640625 4289311924
0.86852401 -0.089538634 1.4326172 4290559937
-3.914185 -0.6146245 10.351562 4288126368
-3.0061529 -0.61416054 10.34375 4287797147
0.3144525 -0.59746122 10.0625 4292467934
4.1917963 -0.54179716 9.125 4289311924
5.274096 -0.53020048 8.9296875 4290560967
-0.35529846 -0.58139706 10.335938 4290559937
0.12714782 -0.57216835 10.171875 4291810261
2.2402337 -0.54492235 9.6875 4289376692
2.3254144 -0.5436039 9.6640625 4289245106
4.549511 -0.51503897 9.15625 4289377974
-5.6557612 -0.36980021 6.960937 4288389540
-4.9816899 -0.54992723 10.351562 4286613129
3.2299798 -0.50842333 9.5703125 4288850348
3.2731926 -0.51049852 9.609375 4288850348
5.1569085 -0.48435116 9.1171875 4289377974
-5.7150874 -0.31640637 6.3281245 4288587176
-3.6471195 -0.51640654 10.328125 4288257954
0.32421887 -0.51875067 10.375 4292467934
1.2377923 -0.50781298 10.15625 4292270812
1.3605462 -0.50625038 10.125 4291678675
4.2243643 -0.47265673 9.453125 4288916910
4.3317618 -0.47148466 9.4296875 4288916910
-5.6890626 -0.48486376 10.34375 4283718499
1.2900383 -0.48376513 10.320312 4292007383
1.9285882 -0.47424364 10.117188 4289771450
5.4725089 -0.43432665 9.265625 4290166209
-4.3216314 -0.45151424 10.320312 4287863197
-5.6658325 -0.25311327 6.2304688 4288521126
-0.69189513 -0.44973183 11.070312 4289376692
5.2038565 -0.38879442 9.5703125 4288916910
-5.6746092 -0.23320341 6.21875 4288521126
-5.612793 -0.30615282 8.1640625 4287073680
-2.5722661 -0.38584042 10.289062 4288126368
3.710546 -0.37734413 10.0625 4287798176
-3.6360843 -0.35395575 10.296875 4289113520
-1.6707036 -0.35341835 10.28125 4287402645
-0.99523979 -0.35314989 10.273438 4287863197
-6.6310167e-07 -0.38242245 11.125 4291415246
2.5925529 -0.35207558 10.242188 4289113520
2.9743645 -0.35180712 10.234375 4288257954
4.2418203 -0.34563017 10.054688 4288258984
-0.64291978 -0.35717869 11.429688 4289508278
0.035350122 -0.35351658 11.3125 4291547088
0.55624932 -0.34765673 11.125 4293322470
1.265551 -0.34204149 10.945312 4292139226
2.2556388 -0.32690477 10.460938 4288718762
-0.99069881 -0.28762245 10.226562 4288126368
0.45893484 -0.31772518 11.296875 4292993505
0.94262546 -0.31420994 11.171875 4293454056
2.2910149 -0.30322313 10.78125 4288718762
4.4034657 -0.28718328 10.210938 4287139989
1.7705559 -0.27773476 11.109375 4289113520
5.0657949 -0.25488329 10.195312 4287469463
5.3678946 -0.25410223 10.164062 4288653738
-3.6571293 -0.22456121 10.265625 4288981934
-3.0155277 -0.22456121 10.265625 4288587176
-2.340064 -0.22439003 10.257812 4288389540
2.1933098 -0.24370193 11.140625 4288126368
-4.5874515 -0.19248104 10.265625 4287534231
-3.91377 -0.19248104 10.265625 4288389540
-1.9204106 -0.1920414 10.242188 4288126368
1.8166252 -0.21372128 11.398438 4288718762
-0.15117259 -0.1889658 12.09375 4291086538
-5.672864 -0.086279392 6.9023438 4287994782
-5.2932134 -0.12832069 10.265625 4286350472
-5.0006838 -0.12822294 10.257812 4286877073
-0.07685639 -0.15371108 12.296876 4291218124
0.5657959 -0.15087986 12.070312 4292993505
0.77006835 -0.14667988 11.734375 4292861919
1.2617189 -0.14843774 11.874999 4291218124
2.2932854 -0.14560604 11.648438 4288126368
-4.6125002 -0.096094131 10.25 4287863197
-0.69389719 -0.11565018 12.335938 4290034622
1.2423332 -0.11293983 12.046875 4291218124
0.35090256 -0.077979088 12.476562 4292139226
0.69653243 -0.077393532 12.382812 4292861919
1.3040509 -0.076709509 12.273438 4290823365
1.8093742 -0.075390816 12.0625 4288718762
4.9511709 -0.063477039 10.15625 4287929762
6.0573478 -0.063428402 10.148438 4288587176
-5.7292237 -0.032007217 10.242188 4282863188
0.78369063 -0.039185524 12.539062 4292664540
-2.3785405 -4.7683716e-07 10.148438 4286613129
-0.28523007 -2.3841858e-07 13.039062 4289836471
-0.2033699 -9.5367432e-07 13.015625 4290099643
2.3027334 -9.5367432e-07 12.28125 4288257954
2.9539299 -4.7683716e-07 10.164062 4288257954
-2.7739751 0.031884193 10.203125 4288850348
1.2773429 0.039916039 12.773438 4290296765
3.61538 0.031713486 10.148438 4288126368
-5.7524419 0.06391573 10.226562 4282336844
0.37287515 0.082860947 13.257812 4292139226
0.69850993 0.082177162 13.148438 4292532954
3.8661125 0.063378334 10.140625 4288126368
-5.7306151 0.060534477 6.4570312 4287994782
-1.6860112 0.095434189 10.179688 4287994782
0.9136222 0.1245842 13.289062 4292599777
1.2414542 0.12414455 13.242188 4291218124
1.8676261 0.12180138 12.992188 4287863197
4.2747793 0.094994545 10.132812 4288257954
5.8806143 0.094848156 10.117188 4287600540
-5.8049684 0.07563448 6.0507812 4287929509
-4.7508302 0.12753868 10.203125 4287403933
1.3025137 0.16806602 13.445312 4290823365
2.3058829 0.16181564 12.945312 4287994782
-5.2980471 0.15051222 9.6328125 4285233022
-4.7824221 0.15039015 9.625 4286087816
-4.6921878 0.15039015 9.625 4286153866
-4.0572515 0.15026808 9.6171875 4285561219
-3.9794927 0.15917921 10.1875 4287864489
0.087352678 0.21838284 13.976562 4290823365
5.6233387 0.15795851 10.109375 4287600540
-1.0125005 0.18984318 10.125 4288521126
-0.67602623 0.27040958 14.421875 4289639864
0.1772462 0.2658689 14.179687 4291415246
0.35312414 0.26484299 14.125 4292467934
0.7866202 0.26220608 13.984375 4292731363
1.3441397 0.26015568 13.875 4291086538
-3.3058598 0.22250938 10.171875 4288390569
-0.72773492 0.22148371 10.125 4290823365
0.090282336 0.31599045 14.445312 4291415246
-3.6906009 0.24003839 9.6015625 4288260020
-0.60620201 0.37304592 14.921875 4289639864
-3.3007817 0.28564405 10.15625 4287469210
0.093407303 0.42033577 14.945312 4291218124
1.6233389 0.4058342 14.429688 4288850348
3.5958977 0.28388643 10.09375 4288521126
-2.2447515 0.31616163 10.117188 4286415749
-0.71586984 0.39770412 12.726562 4291086538
-5.650928 0.31394005 9.1328125 4287994530
-2.5510259 0.34643507 10.078125 4287073680
-0.34196869 0.53737736 15.632812 4289245106
0.28901368 0.5298574 15.414062 4291218124
1.7244384 0.51267028 14.914062 4288587176
2.317163 0.49977946 14.539062 4287994782
2.2524161 0.36979961 10.757812 4290034622
2.9312248 0.34670353 10.085938 4288587176
4.5351553 0.34643507 10.078125 4288718762
5.2239738 0.34616661 10.070312 4288916657
-5.7561164 0.24067366 6.4179692 4287665817
-4.6878667 0.3676753 9.8046875 4283653475
-1.6769537 0.37968683 10.125 4288718762
-1.0433356 0.37939405 10.117188 4288257954
0.049316417 0.59179568 15.781249 4290296765
1.2939696 0.57509685 15.335937 4290428351
1.8509755 0.56953049 15.1875 4288257954
2.3205557 0.55693245 14.851562 4287994782
-0.73447323 0.41513634 10.21875 4291218124
-5.6337404 0.42177677 9.640625 4284968309
-4.7569337 0.42690372 9.7578125 4283719524
-0.30966893 0.72255802 16.515625 4289573298
-0.15424901 0.71982384 16.453125 4289836471
0.40624902 0.71093655 16.25 4292007383
0.90351462 0.70273399 16.0625 4292139226
1.4853505 0.69316292 15.84375 4288850348
-5.690918 0.38452101 8.203125 4286547079
-4.3628907 0.44824171 9.5625 4285760658
-0.72465891 0.60388088 12.882812 4291547088
0.36435446 0.78076077 16.65625 4291810261
0.86992085 0.76757717 16.375 4292928486
1.2187489 0.7617178 16.25 4291810261
1.2683095 0.76098537 16.234375 4291218124
2.2563713 0.53723049 11.460938 4290297795
-5.257422 0.48906183 9.78125 4284443764
-3.0328128 0.50546837 10.109375 4288850348
-0.59350687 0.8632803 17.265625 4289310126
-0.21406351 0.85624886 17.125 4290099643
0.31874898 0.84999943 17 4291678675
1.5908681 0.82109261 16.421875 4288718762
2.1697254 0.87822151 16.53125 4287863197
2.3291004 0.87988186 16.5625 4287797147
2.3224609 0.84003806 15.812499 4287863197
2.2617178 0.64081955 12.0625 4290166209
-5.7527957 0.3821044 6.7929688 4287336595
-3.862891 0.56074142 9.96875 4281483086
-0.22285262 1.0028315 17.828125 4290099643
0.8159169 0.97910118 17.40625 4292270812
1.4475574 0.9650383 17.15625 4289903036
-5.7186522 0.43812227 7.3789062 4286547079
-3.6445317 0.57705021 9.71875 4283193449
1.0501941 1.0501947 17.6875 4292007383
2.2642081 0.74172306 12.492188 4289903036
5.8483143 0.59421349 10.007812 4288061348
-0.70312488 0.93749881 14.999999 4290954952
-0.69077182 0.98681474 15.789063 4289836471
-0.46757922 1.1689444 18.703125 4289113520
1.8288562 1.1083975 17.734375 4288718762
2.3389637 1.0878897 17.40625 4288126368
2.2655265 0.79492092 12.71875 4289903036
4.2253408 0.62597561 10.015625 4288981934
5.5668449 0.62548733 10.007812 4288653485
-5.7902837 0.6572752 10.015625 4282797911
-5.0790772 0.63112736 9.6171875 4284640884
1.8124988 1.1894522 18.125 4288718762
2.0285144 1.1833 18.03125 4288389540
2.3419909 1.1709948 17.84375 4288126368
2.2667959 0.85004807 12.953125 4289771450
-5.8555665 0.40766573 5.9296875 4284772736
-0.488673 1.3438473 19.546875 4289245106
-0.1210949 1.3320303 19.375 4290296765
0.3612293 1.3245106 19.265625 4291678675
0.59570193 1.3105459 19.0625 4292139226
1.0035633 1.2987299 18.890625 4291810261
0.90746951 1.3914537 19.359375 4292599777
1.4929187 1.3734856 19.109375 4289639864
2.3041005 1.1275387 15.6875 4288389540
-5.6674805 0.62109327 8.28125 4286415749
0.37792847 1.5117168 20.15625 4291810261
0.6235339 1.4964828 19.953125 4292599777
1.5843737 1.4624996 19.5 4289508278
2.3214831 1.3265619 17.6875 4288257954
-5.7188239 0.46722376 5.9804692 4287532949
-3.8265383 0.74157667 9.4921875 4284576134
0.19335814 1.6113262 20.625 4290954952
0.44843778 1.6015606 20.5 4291547088
0.82582879 1.5881329 20.328125 4292139226
1.0741198 1.5795879 20.21875 4292270812
1.3186511 1.5698223 20.09375 4291153104
2.309325 1.282958 16.421875 4288257954
-5.3208013 0.81376934 10.015625 4284508788
-4.7887211 0.81376934 10.015625 4282534228
-1.8495122 0.81503868 10.03125 4285363573
-0.63964963 1.663084 20.46875 4289836471
-0.4692899 1.7430649 21.453125 4289376692
1.9647433 1.64785 20.28125 4288981934
2.3564439 1.6123028 19.84375 4288521126
2.2849112 1.2124014 14.921875 4289508278
-0.62050909 1.8615227 22.0625 4289508278
-0.13642707 1.8417473 21.828125 4289903036
0.13554558 1.8298817 21.6875 4290429381
0.47099477 1.8166981 21.53125 4291218124
2.3612781 1.7230949 20.421875 4288587176
2.2813222 1.2570553 14.898438 4289771450
3.1513176 0.84243107 9.984375 4289113520
-5.7032232 0.63369095 7.242188 4286218114
-0.4938978 1.975584 22.578125 4289508278
0.41454944 1.9345684 22.109375 4291547088
1.0224581 1.9085922 21.8125 4291284690
1.1546373 1.9017563 21.734375 4291153104
1.2867662 1.8962879 21.671875 4290692809
4.8559561 0.87158108 9.9609375 4289771450
5.8163567 0.87089825 9.953125 4288061348
-4.8057132 0.87651348 9.671875 4283916396
-4.4071293 0.8694334 9.59375 4283587946
-4.2154546 0.90554142 9.9921875 4281547849
-3.3436532 0.85810518 9.46875 4285562253
-0.74167562 1.2652092 13.960938 4291547088
1.6546861 1.9994125 22.0625 4289508278
2.3607409 1.9017086 20.984375 4288587176
-5.7234373 0.59619093 6.359375 4287270286
-3.60022 0.62072706 6.6210938 4284640378
-3.0074704 0.61376941 6.5468745 4284311930
-4.4062991 0.93090725 9.9296875 4281877072
-3.5853276 0.93530178 9.9765625 4283917431
-1.7200933 0.93823147 10.007812 4287600540
-0.64941525 1.9482403 20.78125 4290034622
-1.4025718e-06 2.2060528 23.53125 4290166209
0.36669934 2.2001953 23.46875 4291021518
0.43710643 2.185545 23.3125 4291153104
0.58085948 2.1782207 23.234375 4291284690
1.3619126 2.1503887 22.9375 4290889932
1.7651353 2.1181622 22.59375 4289508278
2.3009751 2.091795 22.3125 4288718762
-3.7872317 0.93923283 9.6953125 4281679950
-1.0583501 0.96496487 9.9609375 4287863197
1.1059556 2.2856426 23.59375 4291284690
1.3201172 2.2735348 23.46875 4291021518
2.1577148 2.2296371 23.015625 4289113520
2.2609851 1.5575676 16.078125 4288981934
2.2800045 1.5038311 15.523438 4289639864
-3.8026366 0.66132772 6.6132808 4284310639
-3.2212651 1.0007811 10.007812 4285429895
-2.2500005 0.99999905 10 4287074715
-0.75586015 1.343749 13.4375 4291218124
-0.7175799 1.4351552 14.351563 4290823365
-0.70332128 1.7312489 17.3125 4291218124
-0.65478635 2.0953121 20.953125 4290297795
0.23217624 2.4765606 24.765625 4290560967
0.83950043 2.4421864 24.421875 4291153104
-2.325367 0.67313206 6.5273442 4283325035
-0.16074333 2.6522441 25.718748 4290166209
1.2453109 2.5684566 24.90625 4291284690
2.3009753 1.807909 17.53125 4289639864
2.7349601 1.02561 9.9453125 4290429381
-5.8168945 1.0409174 9.796875 4282007109
-2.2393434 0.69851017 6.5742188 4282008397
-0.41674963 2.8338852 26.671875 4289903036
0.16445345 2.7957015 26.312498 4290429381
0.48984027 2.7757802 26.125002 4291153104
2.2275138 1.4850092 13.976562 4290297795
2.2292969 1.4576166 13.718749 4290297795
3.8167229 1.0550289 9.9296875 4288981934
-5.7561164 0.70196497 6.4179692 4287138701
-1.6689457 0.7301631 6.6757812 4284245362
-0.71030372 1.9123526 17.484375 4291415246
0.58823079 2.9411602 26.890625 4291021518
0.99023277 2.8881817 26.40625 4291284690
3.5684807 1.0860586 9.9296875 4288587176
1.3632796 3.0673809 27.265625 4290889932
2.2335932 1.675194 14.890626 4289376692
5.5413074 1.1144524 9.90625 4288785071
2.3197253 2.319725 20.0625 4289771450
-1.2963871 0.83496046 7.03125 4283719017
-1.2306522 0.85026836 7.1601562 4285758854
-0.70341891 1.909277 16.078125 4291415246
-0.62656546 2.9761715 25.0625 4290034622
2.4089844 3.2693343 27.531248 4289508278
2.3238282 2.4529285 20.65625 4289639864
2.2730458 1.9630852 16.53125 4289508278
2.2582011 1.8257802 15.375001 4288587176
2.2778316 1.7311518 14.578126 4287665817
-5.5353518 1.1482906 9.421875 4281349694
-0.65302867 2.8297844 23.21875 4290560967
2.2738757 2.0623522 16.921875 4289508278
2.2633779 1.8014641 14.78125 4287336595
-1.1394657 0.9301753 7.4414062 4285363839
2.3225083 2.654295 21.234375 4289771450
2.2946765 2.3535137 18.828125 4290166209
4.4816885 1.2363272 9.890625 4289113520
-1.3653325 1.2722406 9.9296875 4286153613
2.3364244 2.9028301 22.65625 4289771450
-1.9426512 0.86799276 6.6132808 4283061862
-1.1239017 1.048974 7.9921875 4284903287
-0.73896581 2.2168932 16.890625 4291153104
-0.60840005 3.6503887 27.8125 4290560967
2.224292 1.7626455 13.429687 4289441712
5.1186028 1.2950678 9.8671875 4288587176
-0.78486401 1.776269 13.21875 4290560967
-0.73828274 2.1164043 15.749999 4290166209
-1.1180912 1.1999021 8.7265625 4284639859
2.3748028 3.7318344 27.140625 4290429381
2.3071275 2.9003887 21.09375 4290034622
2.2794421 2.5716782 18.703125 4290166209
-1.1925786 1.2480464 8.875 4284574065
-1.1230474 1.2634268 8.984375 4284376686
-0.69336063 3.1894512 22.1875 4291284690
1.9472646 2.2393551 15.578125 4288718762
-5.7450075 0.87952852 5.9882812 4286612103
-5.7894897 0.8921504 6.0742188 4286612103
-1.1126958 1.4526854 9.890625 4285626749
-0.76533282 2.1159172 14.40625 4289903036
-0.75127053 2.5221186 17.171875 4291284690
-0.65429688 3.8439922 26.171875 4291284690
0.43554708 4.0941386 27.874998 4290298047
0.86572284 4.0688949 27.703123 4290298047
1.1248029 4.0666008 27.6875 4291021770
1.3843733 4.0666008 27.6875 4291416784
2.3364241 3.6603985 24.921875 4290429381
2.1225576 2.1687002 14.765625 4287665817
-0.8203131 1.640624 10.9375 4290429381
-0.80078197 1.921874 12.8125 4290560967
-0.79460526 2.0074215 13.382812 4290297795
-0.69922006 3.3562489 22.375 4291284690
-0.25957194 4.1531239 27.6875 4291416533
-0.75605565 2.6461906 17.28125 4291284690
-1.6503036e-06 4.2396469 27.6875 4291613655
0.25971705 4.2420402 27.703123 4290166461
-5.7381835 1.0705562 6.8515625 4286152067
-5.8427734 1.5136709 9.6875 4281941574
-0.74084502 2.4694808 15.804688 4290429381
-0.6644547 4.1528301 26.578125 4291416533
2.2703111 3.5473614 22.703125 4289376692
2.2636707 2.9785137 19.0625 4290889932
2.2584949 2.8955059 18.53125 4289771450
2.3395751 2.2937009 14.679687 4287402645
4.4226556 1.5356436 9.828125 4288389540
-5.7852168 1.1050409 6.9335933 4286152067
-0.66757965 4.2558098 26.703125 4291416533
2.3365216 4.2558098 26.703125 4291153104
1.9781724 3.478857 21.828125 4289771450
1.9384755 2.4715567 15.507812 4288389540
5.5195303 1.5638666 9.8125 4288653485
-3.0872684 1.0492673 6.4570312 4282930022
-0.69301903 4.0041008 24.640625 4291284690
-0.086327858 4.4890609 27.624998 4291613655
3.5291741 1.5958004 9.8203125 4288718762
5.7908926 1.5932608 9.8046875 4288192934
-5.8475099 1.6226072 9.796875 4280362800
1.3874983 4.5960922 27.75 4290429633
2.1689935 1.7157707 10.359375 4290297795
3.8023429 1.6251945 9.8125 4289376692
-5.697803 1.5859861 9.3984375 4282994521
-0.76855558 2.0750973 12.296876 4287994782
-0.73315555 3.5991192 21.328125 4291153104
0.25956866 4.6722641 27.6875 4290298047
1.383592 4.6696281 27.671875 4290298047
2.2784166 3.7283192 22.09375 4289113520
2.1924307 2.1924305 12.992188 4290034622
2.1733146 1.8628416 11.039062 4290429381
2.1182854 1.7072744 10.117188 4290034622
-2.1990237 1.1198726 6.515625 4279376423
-0.77109474 3.029295 17.625 4290034622
-0.25693521 4.7104473 27.40625 4291416533
2.1254876 1.9483633 11.335938 4290429381
-5.7832036 1.1245114 6.4257817 4285955980
-3.4186523 1.1395507 6.5117188 4282206294
-1.283057 1.2605467 7.203125 4281943125
0.69257832 4.8480468 27.703123 4286482311
2.2627916 3.7269516 21.296875 4289508278
2.109081 2.5675774 14.671875 4286876044
2.1871574 2.2681637 12.960938 4289376692
2.133666 2.1724606 12.414062 4289639864
-1.6376957 1.1967769 6.71875 4278915613
-1.220703 1.3916014 7.8124995 4283588464
-1.204102 1.7158442 9.6328125 4283587428
-0.71425891 3.3927231 19.046875 4289245106
1.2113264 4.9318352 27.6875 4286679691
2.0764151 2.630126 14.765625 4287534231
2.1331046 2.2516108 12.640625 4288981934
3.0921378 1.7450676 9.796875 4288717733
-0.80388278 2.453954 13.539063 4285231218
-0.70468867 3.7156239 20.5 4288521126
2.2332993 3.9251938 21.65625 4288587176
2.1092279 1.8535643 10.226562 4289639864
3.4845695 1.772851 9.78125 4289245106
3.7902336 1.772851 9.78125 4289639864
5.2795401 1.7700186 9.765625 4289903036
-3.4049802 0.68564457 3.7187498 4281087298
-2.7202394 1.1977167 6.4960938 4282798948
-0.83964908 2.0641356 11.195312 4288257954
-0.78276354 2.7166507 14.734374 4285494644
2.245604 3.7854481 20.53125 4289376692
4.3675041 1.8019772 9.7734375 4288850348
5.0964346 1.8005362 9.765625 4288850348
-3.4049315 0.74560541 3.9765623 4282073416
-3.7578123 1.2187494 6.4999995 4283195251
-0.79570383 2.2734365 12.125 4285889402
-0.73691505 3.1582022 16.84375 4284770664
-0.42871064 5.1445308 27.437498 4291021518
0.085888937 5.1533198 27.484373 4291285198
1.3781233 5.1679668 27.5625 4290298047
2.2900374 4.9072247 26.171875 4290166209
2.0709219 2.7612295 14.726562 4287402645
2.1559563 1.95996 10.453125 4289508278
5.4887686 1.8295889 9.7578125 4289113520
-1.2196293 1.6173334 8.484375 4283061860
2.2305646 5.2332497 27.453125 4290166209
2.13413 2.5525875 13.390625 4287402645
2.1695061 2.3217516 12.179688 4288981934
5.7890615 1.858593 9.75 4288521899
-0.85449272 1.8920889 9.765625 4287600540
-0.73095798 4.5319324 23.390623 4286416002
1.9687014 5.3069339 27.390623 4290232775
-0.84668028 2.2225332 11.289062 4287008656
-0.6987319 4.8911114 24.84375 4287336848
2.2253892 3.8944321 19.78125 4288653485
5.6246085 1.8949213 9.625 4288981934
-2.7458987 1.2921867 6.4609375 4287011497
2.2781231 5.3999977 27 4289443002
-5.7242432 1.8328848 9.0234375 4285429116
-0.75930238 2.3502188 11.570312 4285824381
-0.81123126 2.9294424 14.421875 4285166194
-0.78359461 3.1833487 15.671875 4283981148
-0.47544008 2.2073965 10.867188 4282928460
-0.68515784 5.5668926 27.40625 4287797399
1.4542933 5.5605435 27.375002 4289641146
1.9597642 4.3925762 21.625 4287929762
2.8335929 1.9804678 9.75 4288586147
3.2879875 1.9788809 9.7421875 4289310126
-0.28286222 3.111474 15.085938 4286218367
0.085398756 5.636425 27.328125 4290233027
2.1600099 4.5987301 22.296875 4287337624
1.8804921 3.1823721 15.429688 4287206039
-5.7398076 1.5825797 7.5585942 4285231737
-5.7437744 1.8238516 8.7109375 4285429116
-5.5836182 1.9383535 9.2578125 4280955452
-1.2352542 1.5915769 7.601562 4281680472
-0.23547451 3.1553459 15.070312 4286613382
4.6609368 1.9890623 9.5 4289508278
-3.4758728 0.7649169 3.5996094 4282272092
-0.44570372 2.1648436 10.1875 4281941308
-0.17090006 5.810545 27.34375 4289113772
0.42602375 5.7939434 27.265625 4289509560
2.2570295 5.6843739 26.75 4289311416
2.2146471 4.4292965 20.84375 4288061348
5.911962 2.0303707 9.5546875 4288126368
-5.90625 1.819335 8.4375 4285955461
-0.74926817 2.3499746 10.898438 4285626230
-0.15156394 5.2289047 24.25 4287863449
2.2517543 5.7544885 26.687502 4289311416
2.2449222 5.5321269 25.656248 4288917939
2.2203109 4.7875481 22.203125 4286943635
2.1391103 2.8940907 13.421875 4286942094
-0.20312595 3.5546865 16.25 4284310113
-5.7847657 1.7403316 7.84375 4287205786
-5.8842773 2.0280752 9.140625 4281612348
-5.8828373 2.0575438 9.2734375 4281283383
-3.3493779 1.4239866 6.4179692 4286022795
-1.2363286 1.8287344 8.2421875 4282206814
-0.3915534 2.5272942 11.390625 4283586134
0.25590655 6.0564919 27.296875 4289509560
2.2339828 5.6647453 25.53125 4288654767
2.1955066 4.3300285 19.515625 4288653738
1.8719229 3.4078608 15.359375 4286877326
4.4828115 2.0939445 9.4375 4289639864
-5.8999267 1.5969725 7.0976562 4282402637
-5.8972654 1.7121094 7.6093745 4282402637
0.25502765 6.1207008 27.203125 4289311924
1.0177717 6.1066399 27.140625 4289311924
1.1928694 6.1347637 27.265625 4289311924
2.4277337 2.1849604 9.7109375 4288850348
-5.9071779 1.3865719 6.078125 4282732379
-5.5888672 2.1030264 9.21875 4280692280
-1.2581791 1.6699457 7.3203125 4280166719
-1.2381108 1.9230223 8.4296875 4282272092
-1.1559576 2.2206535 9.734375 4283192669
-0.3852545 2.343627 10.273438 4286415999
2.2244124 5.7993641 25.421875 4288128939
2.1947267 4.7122059 20.65625 4287141270
2.999975 2.1261959 9.3203125 4289310126
-5.8920898 1.981884 8.5703125 4281546555
-3.7843263 1.4895749 6.4414062 4282800236
-0.29194427 3.6006336 15.570312 4283652183
-0.25034338 6.1750965 26.703125 4284836714
1.6693349 3.7433586 16.1875 4284838517
2.178319 4.241991 18.34375 4287798428
4.144628 2.1751947 9.40625 4289508278
-0.57041073 2.376708 10.140625 4285560952
-0.35341892 3.7866201 16.15625 4282270273
-0.15078267 5.654295 24.125 4287205262
0.24535975 6.1340313 26.171875 4289640116
0.50214684 6.2768536 26.78125 4289508530
0.76508623 6.3757305 27.203125 4289311924
2.1746082 4.2919903 18.3125 4287666843
2.1442373 3.0926504 13.195312 4287402645
3.3837883 2.1148672 9.0234375 4289178540
3.8055656 2.1459951 9.15625 4289639864
-5.8816409 1.7738276 7.46875 4284507757
-1.2396489 2.1412106 9.015625 4281350470
-0.20537239 5.202734 21.90625 4284770664
-2.8865411e-06 5.4216766 22.828125 4289508530
1.2765609 6.0636711 25.53125 4289771702
1.6445315 6.2492194 26.312498 4289377974
2.0412588 3.4474602 14.515625 4286415749
4.8966546 2.2284174 9.3828125 4289113520
-5.8388186 2.282177 9.484375 4282402383
-0.86440504 3.1694813 13.171875 4285758332
0.98368847 5.4102993 22.484375 4290034875
1.8035141 5.7862778 24.046875 4289311924
2.0724595 5.9103508 24.5625 4287734181
1.415038 3.8913555 16.171875 4286354068
4.6953115 2.2596188 9.390625 4288850348
5.5957022 2.2558584 9.375 4289245106
5.8056145 2.2577391 9.3828125 4288389540
-1.2505984 1.8405026 7.5507808 4281351767
-0.11611438 4.5284176 18.578125 4289113772
1.7760729 5.3282223 21.859375 4288588717
2.15488 4.9435539 20.28125 4285628033
2.1634753 4.4408188 18.21875 4287206291
4.5604973 2.1823235 8.953125 4288981934
4.7737541 2.2032709 9.0390625 4289245106
-5.8715582 1.9489623 7.8945317 4285034358
-0.20703222 4.0888653 16.5625 4282730825
-5.8931761 1.6201167 6.4804688 4286418063
-5.758667 1.8066401 7.2265625 4284705136
-5.4349008 1.9853507 7.9414067 4285823875
-5.1344728 2.0957022 8.3828125 4284705655
-0.56015712 3.734374 14.9375 4283454804
1.5058583 4.0156231 16.0625 4285366658
2.1241691 3.3320303 13.328125 4286415749
5.5142813 2.2167959 8.8671875 4288587176
-5.5733399 1.8203244 7.1914062 4285560446
-5.3709717 1.8915157 7.4726562 4286547855
-5.2264647 1.941943 7.6718745 4287007377
-2.9428713 1.6215816 6.40625 4285035655
-0.44458091 3.6010981 14.226562 4285099886
1.3558583 4.2240219 16.6875 4288786353
1.8547851 3.852246 15.218749 4286679691
-5.4988766 1.7477049 6.820312 4286152840
-0.86132866 2.52246 9.84375 4286679438
-0.21228106 3.4813957 13.585938 4287863449
1.4209716 4.0179195 15.679687 4287931044
2.1277344 3.355273 13.093749 4287336595
-5.4886966 1.6626339 6.4101562 4286546826
-4.5889649 1.9432855 7.4921875 4285560446
-1.2060552 2.5025625 9.6484375 4283061340
-0.87077695 2.6768303 10.320312 4286548108
-0.86601549 2.9949703 11.546875 4285824381
-0.86081612 3.1064205 11.976562 4284771436
-0.23657301 3.2725821 12.617188 4285297265
1.9140605 3.971678 15.312501 4287666069
-5.5276489 1.5739741 5.9960938 4286482831
-0.26164639 3.139745 11.960938 4287534484
1.889794 3.7795887 14.398438 4287994782
2.1724591 3.7242177 14.187501 4287336595
-0.86679739 2.6313467 9.90625 4286811023
-0.80449277 2.8492422 10.726562 4285231988
4.703124 2.3242178 8.75 4289771450
-3.4703064 1.0471799 3.8964844 4287931044
-0.3966803 2.8428707 10.578125 4286876297
1.0547835 3.2396967 12.054688 4290166461
-4.0460453 1.7778072 6.5390625 4289112238
-1.2289068 2.429882 8.9375 4282666070
-0.25488341 2.7718496 10.195312 4289113772
1.3174797 3.1839104 11.710938 4290034875
1.442504 3.2178946 11.835938 4289903036
1.6124992 3.2624989 12 4289903036
2.0586662 3.3793201 12.429688 4289245106
-3.7283568 1.7928709 6.5195308 4285362814
2.0753899 3.2613277 11.859375 4288981934
-4.830615 1.4623289 5.2578125 4287931044
-3.5638309 1.7719603 6.3710938 4287929257
2.0489738 3.1441154 11.304688 4288981934
2.754174 2.5270262 9.0859375 4287994782
-3.4483154 1.7435303 6.1992188 4289112759
-3.3941896 1.7556148 6.2421875 4288981173
-3.1314085 1.8182372 6.4648433 4286481552
-1.2561039 2.2609854 8.0390625 4284640378
-0.88735396 2.348876 8.3515625 4287665817
1.9849113 3.0278311 10.765625 4289113520
2.6083009 2.6982412 9.59375 4286612356
-1.2474369 2.06394 7.2578125 4282732381
2.0410392 2.9481688 10.367188 4288389540
-1.4546268 1.9395018 6.7460938 4280955199
2.0185547 2.8570309 9.9375 4288717733
3.6542473 2.5088863 8.7265625 4289245106
-2.4532473 1.8107295 6.2304688 4287929257
-2.3306155 1.8368406 6.3203125 4287139483
-1.3064704 2.05935 7.0859375 4285824910
-1.247559 2.0718379 7.1289062 4286613911
1.9988762 2.77456 9.546875 4288849318
3.3142815 2.7768307 9.5546875 4285297012
3.3031242 2.7427731 9.4375 4285428597
-4.3068848 1.3723631 4.671875 4287930791
-1.832886 1.8933101 6.4453125 4286284946
2.0830071 2.7194815 9.2578125 4288717733
2.4007318 2.7860346 9.484375 4287730838
3.636718 2.5703115 8.75 4286876044
5.2987051 2.5542479 8.6953125 4289838016
0.61828536 2.3494868 7.914062 4290428351
2.9833977 2.8342276 9.546875 4286217342
4.0942373 2.5930166 8.734375 4287336595
4.6004629 2.5860586 8.7109375 4288653485
0.62143552 2.2945313 7.648437 4290296765
2.1061518 2.5921869 8.640625 4289310126
2.7140617 2.7140617 9.046875 4288191389
4.7070303 2.8242178 9.4140625 4285363320
-1.390137 1.8471675 6.09375 4288258731
3.4224114 2.7896967 9.203125 4286613129
5.0314932 2.638134 8.703125 4287666590
-3.9637694 1.3123288 4.2851562 4287930791
3.917968 2.8232412 9.21875 4286547079
4.034936 2.8447752 9.2890625 4286349700
5.7046866 2.911767 9.5078125 4285034611
5.359374 2.6796865 8.75 4286021507
5.4122548 2.6653318 8.703125 4287797147
0.86779928 0.27170712 0.88720703 4286943382
-3.534375 1.3668089 4.4179688 4289310126
-0.90175813 1.8598752 6.0117188 4288389540
1.7085932 2.3493156 7.59375 4290559937
2.7507563 2.5450926 8.2265625 4290099643
3.1816399 2.6248531 8.484375 4288718762
3.8307121 2.7481194 8.8828125 4287534231
4.2956533 2.8351316 9.1640625 4286613129
5.937499 2.9390621 9.5 4284770411
0.10034141 2.0068355 6.421875 4289639864
5.215795 2.9467764 9.4296875 4285626749
-3.7397461 1.2760615 4.0429688 4287733155
-1.4538943 1.6878533 5.3476562 4288258984
4.6905265 2.7543211 8.7265625 4286811023
5.2406974 2.8924065 9.1640625 4286482058
5.3720207 2.9170647 9.2421875 4286021507
-1.9640627 1.5651121 4.9101562 4288981934
-1.4600832 1.6547604 5.1914062 4288521126
-0.91029078 1.7518797 5.4960938 4288389540
4.8639398 2.7716303 8.6953125 4287863197
-2.486902 1.4471798 4.4960938 4289441712
-0.94837672 1.7137327 5.3242188 4288389540
-0.40986359 1.7760739 5.4648438 4288850348
0.089477189 1.8611326 5.7265625 4289573298
-0.4472537 1.7393184 5.3007812 4288718762
-1.9690431 1.4595699 4.40625 4288850348
-0.95209986 1.6277828 4.9140625 4288061348
0.58571738 1.8813963 5.6796875 4289704884
4.7516594 2.5697746 7.7578125 4288981934
-1.4620607 1.4755979 4.3320312 4288389540
-0.4497073 1.6339355 4.796875 4288587176
0.047131047 1.7124386 5.0273438 4289113520
4.4336782 2.4043336 7.0585933 4289046954
0.71704066 1.7926021 5.2148438 4289704884
1.0941769 1.8516841 5.3867188 4290099643
-0.9160158 1.5175776 4.375 4288061348
-0.41666284 1.5948119 4.5976562 4288587176
0.54943812 1.7425046 5.0234375 4289441712
1.0940425 1.8019528 5.1484375 4289968057
-2.9830079 1.1704161 3.3144531 4288389540
0.042150609 1.6017332 4.4960938 4288981934
-1.4682616 1.3616941 3.7890623 4288389540
0.57714814 1.6593013 4.6171875 4289310126
1.0854489 1.7337031 4.8242188 4289836471
-2.4829102 1.200073 3.3105469 4288587176
-0.95500505 1.4202633 3.9179688 4288061348
-0.42539084 1.4953122 4.125 4288521126
1.0773556 1.7119627 4.7226562 4289836471
-1.4570314 1.3318172 3.6425781 4288389540
-1.9211366 1.2524533 3.3964844 4288521126
2.7293329 1.9056883 5.1679688 4290954952
-0.95745867 1.3727412 3.6914062 4288257954
0.076464593 1.5165524 4.078125 4289310126
-2.7520995 1.0780516 2.8046875 4288521126
0.54328603 1.5187314 3.9511721 4289310126
1.590234 1.6576171 4.3125 4290428351
-0.43579116 1.3618469 3.4863279 4288587176
-2.3901367 1.0951171 2.78125 4288849318
-1.9185548 1.1566405 2.9375 4288718762
1.0264157 1.5396237 3.9101562 4289836471
-0.93261147 1.2735653 3.2089846 4288587176
-2.4736571 1.0566282 2.6210938 4288587176
0.031951699 1.3739316 3.4082031 4289573298
-1.4330323 1.1790769 2.9023438 4288718762
1.5815184 1.5575559 3.8339841 4290428351
-0.9568727 1.2289243 3.0019531 4288850348
1.9283018 1.5887268 3.8808596 4290823365
-0.43753067 1.2834227 3.1113281 4288981934
0.5693357 1.387109 3.3125 4289704884
1.0341794 1.443542 3.4472656 4289968057
1.5256833 1.5032468 3.5898438 4290559937
-0.43974623 1.2459471 2.9316406 4289113520
0.11411114 1.3027709 3.0429688 4290296765
-1.4293214 1.1037536 2.5410156 4289310126
2.1839352 1.5094848 3.4257812 4289968057
-1.8534302 1.0272887 2.2988281 4289178540
0.82768238 0.57735896 1.2919922 4289046954
0.55816633 1.2963865 2.8808594 4289968057
-0.96206677 1.1159971 2.4628906 4289573298
1.0270752 1.3416748 2.9609373 4290296765
1.5671995 1.4027402 3.0957031 4290559937
-0.46303722 1.1655757 2.5546875 4289573298
0.54023421 1.2577329 2.7011719 4289968057
0.015539401 1.1810057 2.4863281 4290296765
1.8278317 1.3708739 2.8671875 4289968057
-1.9308778 0.95921004 1.9931642 4289046954
1.0301695 1.2654052 2.5957031 4289968057
-1.4634888 0.99466538 2.0273438 4289704884
1.5201048 1.2994444 2.6152344 4290296765
0.5299803 1.1850951 2.3554688 4289968057
-1.1148133 0.97689795 1.8388672 4289836471
1.2261716 1.2119138 2.28125 4289968057
1.3237058 1.2169554 2.2773438 4289968057
-0.4378846 1.0296202 1.8935547 4290099643
-1.4378541 0.91131568 1.6201172 4289310126
-0.3174592 1.0136411 1.7822266 4290296765
-0.14718638 1.0303037 1.8115234 4290296765
1.284274 1.1539856 1.9853517 4288849318
0.62498462 1.075424 1.8017578 4289573298
1.023065 1.1097656 1.8496093 4289178540
0.15302724 0.98989558 1.5302734 4290559937
0.81513047 0.80733025 1.2480469 4288059803
1.0259031 1.0612791 1.6171875 4288454561
-0.68116456 0.89714348 1.3291016 4290099643
-0.14431465 0.9446044 1.3994141 4290296765
-0.95269775 0.86608875 1.2597656 4289835441
-0.95353699 0.8608855 1.2353516 4289967027
-0.46801764 0.8931334 1.2480469 4289178540
-0.16744392 0.91120589 1.2460938 4290691523
0.42057484 0.95956409 1.3066406 4288849318
