40.894 20.648 122.03 78 80 76
41.562 20.769 122.5 76 80 79
42.115 20.784 122.36 73 79 79
42.794 20.906 122.82 73 77 76
45.376 22.611 132.27 46 42 25
48.9 25.017 145.66 45 41 24
49.959 25.355 147.27 44 43 25
50.581 25.336 146.85 46 41 26
51.281 25.379 146.78 44 41 26
52.127 25.53 147.31 69 74 77
52.849 25.585 147.28 53 47 34
53.47 25.563 146.82 37 34 20
54.29 25.686 147.16 37 35 25
55.191 25.861 147.78 35 31 18
55.774 25.81 147.14 33 31 16
56.688 25.987 147.75 33 31 18
57.419 26.035 147.64 37 33 21
58.255 26.152 147.9 32 28 16
59.121 26.285 148.24 28 26 15
60.02 26.434 148.65 32 28 15
60.713 26.45 148.32 28 28 15
61.491 26.518 148.27 29 25 15
61.601 26.176 145.98 29 26 15
59.305 24.395 135.88 27 23 15
59.095 23.904 132.81 0 0 0
59.484 23.777 131.71 0 0 0
59.523 23.452 129.55 0 0 0
60.199 23.499 129.38 0 0 0
60.691 23.442 128.65 0 0 0
60.839 23.196 126.91 0 0 0
61.109 23.023 125.56 0 0 0
61.458 22.897 124.46 0 0 0
61.89 22.82 123.61 0 0 0
61.432 22.276 120.3 0 0 0
61.916 22.235 119.64 0 0 0
62.698 22.348 119.79 0 0 0
63.423 22.431 119.76 0 0 0
64.26 22.567 120 0 0 0
65.342 22.823 120.84 0 0 0
66.351 23.036 121.45 0 0 0
-65.34 35.908 183.68 91 102 125
-64.552 35.96 184.71 89 106 126
-62.469 35.415 182.7 88 105 123
-59.869 34.617 179.37 90 101 123
-44.968 27.994 146.21 92 106 127
-42.156 26.99 141.63 50 49 26
-40.655 26.597 140.14 50 44 25
-39.535 26.38 139.54 50 44 22
-38.803 26.35 139.9 49 46 23
-38.053 26.311 140.2 50 44 24
-36.503 25.865 138.36 50 48 26
-35.719 25.801 138.5 52 49 26
-34.879 25.707 138.47 52 48 24
-33.495 25.323 136.91 51 50 26
-32.625 25.205 136.72 53 47 23
-31.724 25.066 136.41 53 48 24
-31.024 25.033 136.66 53 48 26
-29.93 24.781 135.73 53 50 24
-28.747 24.473 134.48 56 50 26
-28.069 24.443 134.71 53 48 25
-27.067 24.226 133.91 55 51 27
-26.328 24.156 133.91 54 50 25
-25.549 24.061 133.75 53 49 23
-24.517 23.81 132.74 52 49 24
-23.84 23.769 132.86 52 47 24
-23.182 23.739 133.03 51 44 24
-22.255 23.538 132.25 51 48 25
-21.421 23.39 131.76 56 50 28
-20.691 23.305 131.6 56 52 26
-20.059 23.283 131.78 53 48 28
-18.977 22.956 130.26 56 50 25
-18.274 22.878 130.12 53 48 25
-17.658 22.858 130.28 54 47 24
-16.956 22.777 130.1 54 50 27
-16.138 22.609 129.42 55 49 27
-15.476 22.549 129.34 56 48 28
-14.888 22.542 129.55 54 48 27
-13.881 22.216 127.96 54 50 27
-13.236 22.159 127.87 55 52 29
-12.601 22.107 127.81 52 49 26
-11.976 22.061 127.77 53 50 27
-11.379 22.036 127.84 54 53 30
-10.576 21.837 126.92 51 50 27
-9.9268 21.762 126.7 57 50 26
-9.4054 21.795 127.08 56 51 29
-8.6364 21.608 126.2 54 50 26
-8.1351 21.657 126.67 58 51 30
-7.4239 21.512 126.02 57 56 29
-6.7632 21.409 125.6 56 51 28
-6.1447 21.342 125.38 54 52 29
-5.5861 21.332 125.48 54 53 28
-4.9043 21.194 124.85 55 54 27
-4.346 21.179 124.92 54 50 26
-3.6616 21.027 124.19 55 51 30
-3.0678 20.968 123.98 54 48 25
-2.4773 20.908 123.78 49 46 24
-1.951 20.921 123.98 46 45 23
-1.5341 21.067 124.94 47 46 23
-1.1881 21.31 126.45 44 42 22
-0.9693 21.731 129 40 37 20
-0.54981 21.913 130.16 48 43 24
-0.14778 22.131 131.53 44 42 24
0.25377 22.365 132.98 51 46 25
0.73909 22.491 133.81 53 50 25
1.1701 22.71 135.18 54 49 25
1.695 22.797 135.77 54 47 25
2.1682 22.976 136.9 52 48 27
2.7268 23.022 137.25 52 47 24
3.2306 23.171 138.19 49 44 23
3.6189 23.549 140.46 40 35 17
4.1783 23.627 140.99 49 42 25
4.6621 23.868 142.46 49 42 23
5.2089 23.997 143.27 47 41 23
5.7195 24.224 144.65 48 41 23
6.2387 24.456 146.05 44 41 21
6.7569 24.718 147.63 46 40 22
7.3766 24.738 147.79 43 38 22
7.9536 24.884 148.68 43 39 21
8.5713 24.924 148.96 40 37 21
9.1282 25.178 150.47 40 37 20
9.7067 25.397 151.77 41 37 21
10.343 25.423 151.94 40 34 18
10.952 25.577 152.85 38 33 18
11.58 25.67 153.41 34 32 18
12.223 25.702 153.61 29 26 15
12.919 25.385 151.76 40 40 32
13.607 25.002 149.53 62 61 54
14.285 24.542 146.84 68 70 62
14.939 24.098 144.25 73 72 66
15.573 23.614 141.41 79 75 69
16.195 22.728 136.23 87 85 80
16.778 20.39 122.6 104 103 102
17.288 19.879 119.6 111 111 113
17.794 19.868 119.51 89 95 97
18.297 19.811 119.14 88 94 96
18.809 19.877 119.49 89 93 90
19.308 19.811 119.06 88 90 92
19.837 19.975 119.97 89 93 95
20.348 19.985 119.99 91 98 95
20.845 19.92 119.55 88 94 100
21.371 20.008 120.01 91 95 97
21.886 20.03 120.08 91 96 95
22.399 20.042 120.08 88 94 92
22.898 20.003 119.79 91 94 93
23.444 20.123 120.41 89 95 93
23.953 20.115 120.29 88 95 92
24.454 20.088 120.05 91 90 92
24.986 20.142 120.28 86 92 94
25.508 20.166 120.34 89 93 88
26.024 20.175 120.3 88 93 92
26.54 20.185 120.26 86 94 91
27.062 20.205 120.27 88 91 89
27.619 20.292 120.67 85 91 91
28.171 20.364 120.97 86 92 88
28.674 20.339 120.72 85 90 85
29.219 20.391 120.9 86 88 87
29.734 20.387 120.75 85 89 88
30.235 20.363 120.49 84 89 84
30.788 20.421 120.69 84 89 86
31.345 20.48 120.89 85 88 84
31.918 20.56 121.21 81 86 86
32.455 20.584 121.2 80 84 81
32.986 20.597 121.13 85 84 83
33.525 20.622 121.12 82 84 83
34.094 20.683 121.31 82 85 84
34.675 20.754 121.55 79 84 83
35.151 20.697 121.06 82 84 85
35.758 20.796 121.44 78 84 84
36.334 20.853 121.59 81 83 81
36.936 20.937 121.88 77 82 85
37.498 20.974 121.91 77 82 83
38.068 21.018 121.96 79 84 80
38.605 21.025 121.8 77 80 78
39.178 21.069 121.85 77 82 80
39.781 21.14 122.03 77 80 78
40.426 21.248 122.42 76 80 81
41.004 21.288 122.43 76 80 76
41.572 21.319 122.38 76 77 78
42.143 21.35 122.32 74 78 77
42.955 21.591 123.42 74 77 71
45.774 23.537 133.96 41 38 23
49.146 25.869 146.58 44 41 28
49.911 25.969 146.83 44 42 27
50.694 26.08 147.14 44 41 26
51.331 26.072 146.77 44 41 24
52.184 26.232 147.33 72 78 78
52.964 26.33 147.53 47 40 28
53.713 26.403 147.59 35 33 17
54.417 26.439 147.44 38 38 24
55.174 26.513 147.49 32 28 17
55.98 26.62 147.7 32 30 17
56.701 26.664 147.57 32 33 17
57.656 26.867 148.28 36 35 19
58.575 27.04 148.82 31 28 15
59.328 27.097 148.73 28 26 16
60.035 27.122 148.46 30 28 16
60.795 27.181 148.36 29 25 17
61.549 27.235 148.22 27 25 14
61.268 26.639 144.63 28 25 15
59.345 25.047 135.78 23 21 13
59.012 24.469 132.31 0 0 0
59.374 24.323 131.14 0 0 0
59.683 24.151 129.82 0 0 0
60.15 24.075 129.01 0 0 0
60.519 23.946 127.91 0 0 0
61.139 23.963 127.57 0 0 0
61.471 23.819 126.38 0 0 0
61.669 23.604 124.83 0 0 0
61.478 23.182 122.22 0 0 0
61.397 22.831 119.98 0 0 0
62.135 22.925 120.02 0 0 0
62.703 22.927 119.58 0 0 0
63.818 23.213 120.57 0 0 0
64.788 23.419 121.14 0 0 0
65.337 23.407 120.6 0 0 0
66.357 23.631 121.24 0 0 0
-65.834 37.043 184.4 90 104 125
-65.721 37.414 187 89 102 125
-62.777 36.455 183.03 90 106 126
-60.137 35.62 179.63 89 105 123
-46.52 29.457 149.64 89 105 128
-42.48 27.837 142.12 50 47 26
-40.875 27.384 140.39 48 43 25
-39.806 27.189 139.94 49 45 22
-38.91 27.076 139.88 50 46 22
-37.947 26.927 139.63 50 47 23
-36.877 26.719 139.07 54 47 22
-35.717 26.458 138.22 52 45 26
-34.592 26.21 137.41 52 47 25
-33.772 26.119 137.4 54 48 24
-32.76 25.922 136.83 52 47 22
-31.906 25.806 136.67 52 47 25
-30.934 25.622 136.13 52 48 24
-30.275 25.611 136.49 53 49 24
-29.367 25.455 136.08 53 48 22
-28.119 25.097 134.6 54 49 27
-27.397 25.04 134.69 51 46 23
-26.411 24.823 133.92 54 48 25
-25.762 24.806 134.19 53 48 23
-24.719 24.543 133.15 52 45 26
-24.148 24.57 133.64 53 51 26
-23.41 24.491 133.56 57 51 27
-22.29 24.162 132.13 54 46 25
-21.641 24.132 132.29 54 50 24
-20.835 23.997 131.88 54 48 24
-20.232 23.995 132.17 52 45 23
-19.192 23.692 130.83 54 50 25
-18.206 23.415 129.63 53 52 28
-17.673 23.453 130.11 55 51 26
-17.029 23.412 130.16 53 50 27
-16.13 23.181 129.16 54 49 27
-15.518 23.157 129.29 56 50 25
-14.708 22.98 128.57 53 51 24
-14.069 22.931 128.55 54 50 25
-13.268 22.75 127.79 57 52 27
-12.593 22.666 127.56 54 51 28
-12.013 22.655 127.72 54 49 28
-11.421 22.635 127.82 56 51 26
-10.562 22.383 126.64 56 51 30
-10.015 22.395 126.91 55 51 28
-9.3509 22.303 126.59 53 50 28
-8.7378 22.253 126.51 55 51 26
-8.1727 22.245 126.65 55 51 28
-7.3891 22.029 125.63 53 51 29
-6.7934 21.985 125.56 55 50 28
-6.1846 21.927 125.4 57 52 29
-5.6301 21.922 125.53 54 52 27
-5.0416 21.88 125.45 55 52 27
-4.3878 21.765 124.96 57 52 27
-3.8296 21.75 125.03 54 52 27
-3.052 21.485 123.68 55 54 29
-2.471 21.435 123.53 52 47 25
-2.0838 21.615 124.67 50 45 24
-1.6379 21.733 125.45 47 47 23
-1.2726 21.96 126.85 43 41 21
-0.88099 22.168 128.13 46 42 23
-0.57585 22.506 130.15 42 38 20
-0.14715 22.692 131.31 51 45 25
0.30446 22.858 132.35 56 48 25
0.79134 22.983 133.15 51 49 24
1.2237 23.202 134.49 53 47 25
1.7529 23.28 135.02 53 47 27
2.1309 23.62 137.03 51 46 25
2.6019 23.824 138.27 51 44 25
3.0111 24.158 140.24 51 45 24
3.6045 24.17 140.39 51 46 25
4.0554 24.469 142.15 51 43 23
4.6388 24.518 142.5 48 42 24
5.142 24.75 143.87 46 41 21
5.6759 24.935 144.98 47 40 23
6.2267 25.099 145.97 46 41 21
6.783 25.27 146.99 46 39 22
7.3619 25.398 147.77 44 37 22
7.9432 25.538 148.6 45 39 20
8.5163 25.725 149.7 43 37 22
9.1396 25.767 149.97 41 34 22
9.7141 26.001 151.33 42 36 19
10.344 26.049 151.62 40 35 20
10.927 26.325 153.22 37 34 16
11.569 26.358 153.41 35 31 18
12.222 26.339 153.32 30 26 14
12.912 26.055 151.71 41 40 32
13.6 25.668 149.5 62 59 51
14.282 25.166 146.65 69 67 65
14.936 24.705 144.02 75 72 69
15.574 24.136 140.77 78 78 75
16.193 23.295 135.98 87 84 80
16.776 20.925 122.51 102 103 98
17.286 20.423 119.63 110 109 111
17.794 20.406 119.51 91 95 97
18.302 20.411 119.5 88 92 96
18.815 20.473 119.82 90 93 95
19.314 20.389 119.3 89 95 93
19.836 20.494 119.85 90 96 92
20.34 20.458 119.6 95 95 96
20.864 20.548 120.06 89 95 90
21.371 20.528 119.89 91 96 98
21.883 20.54 119.9 90 93 96
22.4 20.568 119.99 90 94 96
22.918 20.596 120.08 88 95 92
23.474 20.745 120.86 90 96 92
23.952 20.633 120.14 91 93 93
24.479 20.677 120.32 88 93 93
25.007 20.718 120.46 87 93 93
25.509 20.69 120.22 89 94 92
26.03 20.709 120.24 87 90 91
26.579 20.793 120.61 87 91 92
27.06 20.719 120.09 84 91 89
27.629 20.834 120.64 88 91 88
28.161 20.866 120.7 84 90 88
28.688 20.887 120.71 87 90 88
29.211 20.899 120.66 84 91 86
29.734 20.91 120.6 85 90 89
30.312 21.012 121.04 84 86 86
30.829 21.009 120.89 86 89 89
31.36 21.027 120.86 83 87 83
31.902 21.061 120.91 81 85 87
32.442 21.09 120.93 79 85 81
33.037 21.194 121.36 83 84 84
33.527 21.151 120.96 82 85 87
34.129 21.255 121.39 78 85 84
34.61 21.201 120.93 80 86 81
35.3 21.408 121.9 80 84 82
35.725 21.286 121.05 79 83 80
36.355 21.409 121.55 79 84 80
36.976 21.516 121.96 80 82 80
37.501 21.512 121.75 80 81 81
37.967 21.445 121.19 77 81 79
38.613 21.569 121.67 78 81 85
39.313 21.742 122.42 75 82 80
39.774 21.671 121.82 79 80 79
40.425 21.787 122.23 77 81 81
40.975 21.801 122.1 76 79 79
41.657 21.939 122.62 73 80 77
42.224 21.966 122.53 74 78 76
43.026 22.202 123.58 70 76 75
46.4 24.679 136.71 42 40 26
49.199 26.564 146.6 43 41 24
49.959 26.662 146.82 43 39 24
50.718 26.755 147.01 40 40 24
51.541 26.897 147.45 42 36 26
52.311 26.991 147.63 74 78 74
52.989 27.011 147.4 46 39 31
53.789 27.123 147.66 35 32 20
54.53 27.187 147.65 38 37 20
55.311 27.279 147.78 31 28 17
55.964 27.275 147.4 33 29 17
56.836 27.428 147.83 33 32 18
57.601 27.501 147.84 34 32 16
58.472 27.645 148.2 29 26 16
59.288 27.747 148.34 29 27 14
60.06 27.817 148.3 30 26 15
60.861 27.905 148.33 29 26 16
61.516 27.894 147.86 29 26 15
60.577 26.862 142.09 26 23 14
59.369 25.691 135.62 24 23 14
59.054 25.109 132.21 0 0 0
59.568 25.053 131.51 0 0 0
59.58 24.695 129.27 0 0 0
60.239 24.733 129.04 0 0 0
60.554 24.568 127.78 0 0 0
61.032 24.502 127.02 0 0 0
61.13 24.221 125.16 0 0 0
61.646 24.183 124.54 0 0 0
61.514 23.785 122.1 0 0 0
61.362 23.386 119.66 0 0 0
62.182 23.526 119.92 0 0 0
62.802 23.556 119.61 0 0 0
63.392 23.57 119.22 0 0 0
64.432 23.82 119.99 0 0 0
65.323 23.987 120.33 0 0 0
66.452 24.273 121.24 0 0 0
-66.723 38.376 186.01 88 101 121
-65.521 38.239 186.13 88 102 123
-63.238 37.576 183.71 90 102 124
-60.556 36.703 180.23 89 104 126
-46.842 30.347 150.09 81 96 122
-42.538 28.558 141.96 46 43 23
-41.935 28.602 142.72 48 43 24
-39.894 27.91 139.86 48 43 21
-38.889 27.739 139.54 50 45 23
-37.862 27.552 139.12 51 46 23
-36.605 27.239 138.06 50 43 23
-35.696 27.105 137.87 49 44 22
-35.018 27.094 138.29 52 46 26
-33.85 26.813 137.34 52 48 24
-32.629 26.494 136.18 51 48 22
-32.225 26.63 137.3 54 48 26
-30.864 26.219 135.66 53 46 25
-30.358 26.296 136.46 52 48 25
-29.681 26.274 136.76 53 49 23
-28.161 25.747 134.47 53 48 25
-27.41 25.672 134.47 53 49 26
-26.407 25.439 133.65 53 49 25
-25.802 25.448 134.06 54 47 24
-24.86 25.244 133.36 54 46 23
-24.083 25.14 133.17 53 49 26
-23.103 24.9 132.27 54 47 24
-22.358 24.809 132.12 53 48 27
-21.643 24.735 132.05 52 48 26
-20.829 24.59 131.61 53 46 27
-20.156 24.539 131.65 54 46 25
-19.417 24.44 131.43 52 47 24
-18.479 24.195 130.43 55 49 26
-17.696 24.054 129.96 55 48 26
-17.015 23.985 129.87 53 49 26
-16.195 23.807 129.19 55 51 26
-15.574 23.777 129.29 57 50 28
-14.763 23.596 128.58 51 49 26
-14.13 23.551 128.58 55 48 25
-13.34 23.376 127.88 55 50 28
-12.749 23.359 128.02 57 53 26
-12.095 23.289 127.87 53 50 25
-11.445 23.219 127.71 55 51 27
-10.665 23.031 126.91 56 51 28
-10.08 23.011 127 57 51 29
-9.4142 22.916 126.69 53 51 25
-8.8514 22.913 126.87 59 54 27
-8.1601 22.787 126.37 55 52 26
-7.4041 22.592 125.49 56 52 26
-6.8455 22.585 125.63 55 51 28
-6.1673 22.455 125.09 55 52 28
-5.5878 22.423 125.08 57 54 31
-4.9704 22.348 124.82 54 51 28
-4.3716 22.289 124.66 55 52 29
-3.8517 22.317 124.95 54 50 28
-3.1884 22.179 124.34 51 53 27
-2.6348 22.164 124.4 52 48 29
-2.0911 22.161 124.51 50 47 26
-1.6197 22.25 125.12 46 46 25
-1.2306 22.451 126.34 44 39 23
-0.88808 22.727 127.97 47 44 24
-0.67908 23.207 130.72 41 37 18
-0.1542 23.265 131.15 48 46 25
0.21124 23.563 132.89 53 47 27
0.68388 23.717 133.84 52 46 23
1.1333 23.92 135.06 52 46 25
1.6593 24.011 135.65 54 47 25
2.1304 24.203 136.8 49 46 26
2.6844 24.262 137.22 51 45 24
3.0728 24.637 139.37 51 46 24
3.5764 24.82 140.45 49 43 25
4.0699 25.041 141.75 49 44 24
4.6079 25.187 142.62 49 41 23
5.143 25.354 143.62 47 41 24
5.6589 25.587 144.96 49 40 22
6.2167 25.739 145.86 46 40 23
6.7377 26.009 147.41 45 38 21
7.3564 26.035 147.6 44 38 21
7.9361 26.183 148.46 45 37 22
8.5094 26.374 149.56 43 37 19
9.1033 26.523 150.42 43 36 20
9.7051 26.667 151.25 40 36 18
10.326 26.759 151.78 37 32 18
10.941 26.893 152.54 36 31 17
11.557 27.059 153.48 32 30 17
12.206 27.072 153.56 25 24 14
12.905 26.723 151.62 42 41 34
13.594 26.336 149.48 60 60 53
14.278 25.795 146.48 69 69 62
14.931 25.361 144.06 73 72 66
15.571 24.756 140.7 77 77 70
16.195 23.676 134.7 90 86 85
16.774 21.344 121.76 103 103 100
17.284 20.931 119.45 104 110 111
17.797 21.037 120.01 89 99 98
18.302 20.956 119.53 86 93 95
18.81 20.95 119.46 90 96 100
19.318 20.945 119.39 89 94 95
19.847 21.105 120.23 90 96 96
20.349 21.041 119.83 92 96 94
20.849 20.989 119.49 88 93 95
21.376 21.076 119.92 88 92 97
21.894 21.109 120.04 92 97 92
22.4 21.089 119.87 91 91 96
22.922 21.129 120.02 89 96 94
23.448 21.18 120.23 89 96 94
23.965 21.193 120.23 88 94 92
24.51 21.288 120.67 87 93 91
24.995 21.205 120.13 87 91 91
25.525 21.252 120.3 91 92 91
26.034 21.24 120.14 90 92 93
26.593 21.346 120.63 89 91 89
27.145 21.427 120.97 85 92 89
27.663 21.426 120.86 87 90 86
28.228 21.523 121.29 85 92 89
28.706 21.443 120.73 85 88 87
29.244 21.482 120.83 85 90 88
29.818 21.58 121.24 84 88 86
30.323 21.555 120.98 84 88 86
30.86 21.583 121 86 87 86
31.381 21.586 120.88 84 90 85
31.971 21.691 121.31 83 84 82
32.488 21.683 121.13 84 85 82
33.047 21.736 121.26 80 84 83
33.596 21.772 121.31 80 89 82
34.159 21.825 121.43 81 85 83
34.692 21.835 121.33 83 85 84
35.286 21.922 121.62 80 83 82
35.759 21.857 121.1 80 82 82
36.394 21.988 121.63 79 82 82
37.012 22.092 122 78 84 78
37.432 21.968 121.15 79 82 81
38.08 22.101 121.67 79 82 78
38.719 22.218 122.1 79 81 79
39.264 22.231 121.97 77 79 81
39.832 22.267 121.95 77 83 81
40.429 22.331 122.07 79 81 77
41.103 22.467 122.57 76 81 77
41.576 22.406 122.02 75 79 76
42.358 22.636 123.01 74 76 75
43.212 22.921 124.28 73 77 78
46.941 25.771 139.05 42 41 24
49.253 27.263 146.62 43 40 24
50.027 27.374 146.9 42 40 24
50.689 27.387 146.65 43 39 23
51.559 27.57 147.29 75 76 74
52.282 27.629 147.27 73 79 73
53.119 27.776 147.7 40 34 24
53.851 27.835 147.67 36 30 19
54.708 27.99 148.12 38 34 18
55.274 27.918 147.39 32 29 16
56.238 28.146 148.2 32 30 16
56.881 28.132 147.75 35 31 18
57.902 28.39 148.69 35 30 16
58.559 28.382 148.26 28 25 15
59.352 28.47 148.31 30 27 16
60.077 28.508 148.1 29 25 16
61.102 28.748 148.9 28 25 14
61.661 28.671 148.08 29 26 15
59.929 27.093 139.69 26 25 14
58.917 26.027 133.9 25 23 15
59.458 25.981 133.26 0 0 0
59.432 25.581 130.85 0 0 0
59.578 25.299 129.02 0 0 0
60.071 25.236 128.29 0 0 0
60.439 25.101 127.2 0 0 0
60.849 24.994 126.24 0 0 0
61.466 25.012 125.9 0 0 0
61.605 24.752 124.18 0 0 0
61.441 24.326 121.66 0 0 0
61.53 24.054 119.89 0 0 0
62.148 24.084 119.59 0 0 0
62.83 24.149 119.45 0 0 0
63.768 24.352 119.97 0 0 0
64.461 24.419 119.82 0 0 0
65.828 24.843 121.37 0 0 0
66.394 24.836 120.85 0 0 0
-66.165 39.027 184.33 84 100 125
-65.369 39.083 185.36 89 104 121
-63.377 38.547 183.62 86 101 122
-62.168 38.392 183.63 71 89 115
-48.571 31.957 153.9 55 88 120
-42.452 29.206 141.43 45 39 20
-41.972 29.314 142.5 45 39 19
-40.19 28.742 140.3 47 42 22
-39.062 28.504 139.68 45 41 21
-37.905 28.244 138.93 47 44 22
-37.118 28.18 139.12 51 43 26
-36.325 28.11 139.27 51 43 24
-34.855 27.661 137.55 52 45 25
-34.061 27.582 137.63 52 45 21
-33.301 27.522 137.79 52 47 24
-31.941 27.111 136.21 51 47 23
-31.285 27.104 136.6 52 46 23
-30.138 26.803 135.53 53 45 24
-29.165 26.6 134.93 52 46 24
-28.231 26.415 134.41 53 48 29
-27.525 26.366 134.55 57 51 25
-26.822 26.319 134.69 53 46 23
-25.569 25.918 133.05 52 47 23
-24.882 25.872 133.17 53 45 23
-23.968 25.675 132.53 52 46 23
-23.341 25.664 132.81 54 46 26
-22.205 25.308 131.34 54 49 28
-21.711 25.382 132.04 54 48 24
-20.807 25.173 131.29 53 48 25
-20.017 25.037 130.9 53 48 27
-19.519 25.108 131.56 53 47 24
-18.731 24.968 131.13 55 50 25
-17.816 24.729 130.18 56 50 26
-17.104 24.635 129.97 54 48 25
-16.296 24.465 129.36 58 52 28
-15.596 24.372 129.14 53 49 29
-14.818 24.214 128.57 54 50 26
-14.374 24.323 129.38 51 50 25
-13.52 24.094 128.43 54 50 25
-12.742 23.922 127.76 54 51 25
-12.197 23.943 128.1 55 50 26
-11.414 23.756 127.34 55 52 25
-10.867 23.773 127.64 55 51 28
-10.187 23.669 127.3 56 51 27
-9.4253 23.484 126.52 55 51 27
-8.5575 23.188 125.16 57 52 30
-8.2211 23.401 126.46 57 51 28
-7.5019 23.239 125.79 56 48 25
-6.882 23.171 125.61 52 49 27
-6.1871 23.021 124.98 55 52 25
-5.6377 23.021 125.14 56 52 29
-5.0091 22.933 124.83 55 53 30
-4.3122 22.763 124.08 54 54 27
-3.879 22.89 124.91 53 51 27
-3.2194 22.754 124.33 51 48 25
-2.6381 22.706 124.21 52 48 24
-2.09 22.698 124.29 50 48 24
-1.5173 22.656 124.2 46 43 28
-1.2421 23.01 126.21 40 39 20
-0.9193 23.32 127.99 45 41 23
-0.58653 23.636 129.79 51 46 23
-0.19503 23.887 131.24 51 46 26
0.18234 24.176 132.9 53 47 26
0.64196 24.355 133.97 51 46 28
1.1596 24.453 134.6 50 47 23
1.6523 24.601 135.48 52 47 26
2.0709 24.891 137.13 51 45 25
2.5796 25.039 138.02 54 45 26
3.069 25.236 139.17 50 44 24
3.5671 25.434 140.31 50 44 24
4.0634 25.655 141.57 49 45 22
4.6165 25.771 142.28 48 42 21
5.1251 26.003 143.59 47 40 23
5.6572 26.202 144.73 45 38 20
6.2086 26.375 145.72 46 39 22
6.7755 26.526 146.59 47 39 22
7.3117 26.786 148.04 44 39 20
7.8681 27.02 149.35 43 37 20
8.496 27.046 149.53 42 37 19
9.1026 27.155 150.15 44 36 18
9.7042 27.303 150.98 40 34 19
10.307 27.472 151.92 38 33 17
10.923 27.615 152.72 34 30 17
11.561 27.677 153.06 33 28 15
12.201 27.733 153.38 26 20 14
12.903 27.364 151.39 42 40 33
13.58 27.066 149.78 58 55 49
14.276 26.414 146.25 71 69 63
14.936 25.855 143.21 75 74 68
15.569 25.345 140.44 77 77 73
16.192 24.288 134.71 90 88 86
16.772 21.802 121.25 103 101 97
17.282 21.478 119.47 101 107 107
17.791 21.466 119.38 93 101 103
18.304 21.525 119.67 90 95 98
18.809 21.47 119.34 91 97 98
19.318 21.48 119.36 92 96 98
19.841 21.585 119.87 91 97 94
20.343 21.53 119.53 91 95 93
20.867 21.608 119.9 90 97 96
21.362 21.526 119.41 89 99 95
21.891 21.616 119.83 91 96 98
22.417 21.678 120.1 91 93 94
22.905 21.587 119.54 90 95 98
23.441 21.677 119.96 87 94 92
23.994 21.806 120.58 90 93 93
24.486 21.738 120.13 89 93 90
25.01 21.769 120.21 89 91 88
25.542 21.816 120.38 89 92 88
26.049 21.799 120.19 88 89 89
26.549 21.764 119.92 86 91 94
27.148 21.957 120.84 89 92 88
27.658 21.94 120.65 89 90 91
28.186 21.962 120.66 86 90 87
28.72 21.995 120.73 84 88 86
29.242 22.002 120.64 87 90 89
29.816 22.102 121.06 86 88 86
30.363 22.148 121.17 84 88 82
30.881 22.145 121.02 85 88 84
31.39 22.125 120.78 85 87 86
31.933 22.161 120.83 84 87 83
32.523 22.264 121.23 84 86 84
33.018 22.223 120.87 81 84 82
33.578 22.277 121 82 86 84
34.174 22.375 121.36 82 84 86
34.695 22.369 121.17 81 85 84
35.319 22.497 121.67 82 85 84
35.878 22.536 121.7 79 84 82
36.352 22.469 121.17 79 83 80
37.011 22.626 121.81 79 83 82
37.547 22.633 121.66 79 84 81
38.164 22.73 121.97 78 81 79
38.764 22.805 122.17 75 84 80
39.285 22.791 121.89 75 79 78
39.907 22.884 122.16 76 83 79
40.44 22.882 121.94 76 80 78
41.125 23.032 122.5 76 78 75
41.605 22.975 121.97 76 76 78
42.176 23.009 121.92 74 77 75
43.224 23.486 124.14 86 90 79
47.257 26.679 140.31 41 37 24
49.326 27.982 146.72 42 40 24
50.013 28.017 146.59 41 37 22
50.753 28.097 146.69 43 37 24
51.598 28.263 147.22 72 77 74
52.444 28.424 147.71 75 77 75
53.084 28.411 147.31 36 32 21
53.766 28.432 147.08 34 30 18
54.579 28.556 147.35 36 30 19
55.347 28.642 147.43 30 27 15
56.217 28.802 147.86 32 31 16
57.049 28.928 148.13 34 32 18
57.911 29.073 148.47 33 28 18
58.615 29.1 148.21 29 26 15
59.386 29.172 148.17 30 28 17
60.095 29.2 147.9 30 25 16
61.038 29.389 148.41 30 28 18
61.554 29.281 147.45 29 25 15
59.366 27.361 137.57 26 22 14
58.925 26.654 133.68 27 26 15
59.148 26.4 132.03 0 0 0
59.422 26.186 130.57 0 0 0
59.704 25.984 129.17 0 0 0
60.227 25.937 128.52 0 0 0
60.701 25.862 127.73 0 0 0
60.781 25.55 125.8 0 0 0
61.388 25.562 125.42 0 0 0
61.819 25.471 124.54 0 0 0
61.389 24.878 121.27 0 0 0
61.527 24.628 119.64 0 0 0
62.268 24.729 119.68 0 0 0
63.045 24.849 119.79 0 0 0
63.734 24.916 119.64 0 0 0
64.822 25.201 120.51 0 0 0
65.718 25.376 120.84 0 0 0
66.821 25.658 121.67 0 0 0
-66.404 40.062 184.44 90 102 118
-64.559 39.594 183.09 88 102 124
-64.619 40.081 186.08 89 102 124
-62.524 39.475 184.06 78 92 117
-50.066 33.486 157.13 84 100 124
-42.994 30.182 142.43 43 37 22
-41.821 29.929 141.81 46 40 23
-40.554 29.618 140.9 47 40 19
-39.722 29.538 141.04 48 43 22
-38.141 29.043 139.24 46 40 20
-37.12 28.848 138.82 47 42 20
-35.996 28.591 138.08 49 41 22
-34.672 28.212 136.76 50 45 23
-33.9 28.143 136.9 51 45 18
-33.301 28.174 137.49 51 45 21
-31.833 27.69 135.61 52 44 23
-31.226 27.711 136.15 52 46 24
-30.354 27.571 135.89 53 47 21
-29.715 27.57 136.3 53 46 26
-28.652 27.306 135.41 54 46 27
-27.64 27.065 134.63 53 46 23
-26.864 26.97 134.55 58 49 25
-25.874 26.732 133.75 52 45 23
-25.13 26.649 133.71 51 45 24
-24.262 26.482 133.24 53 48 25
-23.522 26.396 133.16 53 46 24
-22.588 26.174 132.4 53 48 24
-21.633 25.93 131.51 53 49 25
-20.882 25.824 131.3 54 48 24
-20.255 25.805 131.51 52 47 23
-19.367 25.592 130.75 53 47 25
-18.589 25.454 130.35 52 47 26
-18.019 25.471 130.72 54 50 26
-17.186 25.284 130.05 56 50 27
-16.492 25.2 129.9 55 47 27
-15.661 25.003 129.16 56 48 27
-15.048 24.977 129.28 57 52 27
-14.246 24.793 128.6 53 49 27
-13.627 24.757 128.66 53 49 26
-13.036 24.744 128.83 55 48 26
-12.165 24.483 127.72 54 50 25
-11.483 24.381 127.42 54 51 26
-10.824 24.297 127.2 56 52 26
-10.157 24.202 126.92 56 51 26
-9.5132 24.125 126.73 54 50 27
-8.8848 24.06 126.58 60 50 29
-8.1307 23.865 125.77 56 50 28
-7.5343 23.823 125.74 56 50 29
-6.9082 23.748 125.53 55 52 28
-6.2702 23.657 125.22 55 51 26
-5.6012 23.526 124.72 56 52 25
-5.0282 23.498 124.73 57 53 29
-4.4814 23.498 124.88 56 51 27
-3.8071 23.347 124.25 52 50 26
-3.2139 23.287 124.07 52 48 27
-2.709 23.333 124.45 52 48 26
-2.0892 23.234 124.07 52 49 25
-1.5968 23.298 124.53 45 44 21
-1.2375 23.548 125.96 40 38 21
-0.91505 23.866 127.73 46 41 23
-0.58651 24.194 129.56 49 43 24
-0.21756 24.484 131.19 52 46 27
0.17115 24.763 132.76 53 45 25
0.59972 24.997 134.09 53 46 25
1.1389 25.063 134.54 52 46 24
1.6161 25.242 135.58 51 44 24
2.0544 25.505 137.05 50 44 23
2.5666 25.651 137.91 53 44 25
3.0307 25.903 139.32 49 45 24
3.5712 26.022 140.02 51 44 23
4.0489 26.286 141.49 47 42 23
4.5728 26.473 142.54 49 43 23
5.0386 26.816 144.42 48 40 21
5.6465 26.841 144.61 46 38 20
6.1688 27.096 146.01 44 39 20
6.7199 27.3 147.15 46 39 23
7.3078 27.421 147.83 41 39 20
7.8624 27.666 149.17 42 38 20
8.4486 27.838 150.12 41 35 18
9.0734 27.893 150.45 38 35 18
9.6745 28.055 151.33 39 32 17
10.28 28.229 152.27 36 31 16
10.896 28.386 153.12 35 31 16
11.542 28.415 153.29 34 28 16
12.194 28.417 153.31 24 19 13
12.902 27.995 151.09 43 38 33
13.583 27.651 149.28 59 59 52
14.271 27.062 146.16 69 69 63
14.935 26.45 142.92 72 70 64
15.568 25.911 140.06 77 75 74
16.191 24.808 134.22 93 90 89
16.77 22.382 121.39 103 99 96
17.282 22.089 119.82 106 105 106
17.79 22.009 119.37 93 96 97
18.299 21.991 119.25 90 93 101
18.815 22.08 119.68 90 95 99
19.33 22.119 119.85 91 96 97
19.842 22.125 119.84 89 94 96
20.357 22.148 119.91 94 94 92
20.871 22.159 119.92 90 94 95
21.386 22.172 119.93 91 95 96
21.892 22.145 119.73 90 95 93
22.413 22.186 119.89 90 96 94
22.934 22.216 119.98 89 95 96
23.48 22.337 120.54 90 96 90
23.968 22.244 119.98 88 95 93
24.518 22.36 120.5 89 91 90
25.035 22.363 120.44 87 92 93
25.552 22.367 120.37 88 93 88
26.07 22.371 120.3 90 92 89
26.582 22.364 120.17 88 92 91
27.117 22.409 120.3 88 89 90
27.661 22.47 120.52 87 91 91
28.216 22.549 120.83 90 89 90
28.741 22.561 120.77 87 93 87
29.252 22.545 120.57 85 88 86
29.78 22.563 120.54 86 87 85
30.364 22.678 121.01 86 87 90
30.877 22.663 120.8 82 88 80
31.433 22.722 120.97 85 89 85
31.939 22.696 120.7 86 84 83
32.544 22.824 121.22 85 86 80
33.093 22.862 121.27 81 84 83
33.633 22.883 121.22 83 86 82
34.165 22.893 121.11 81 85 84
34.702 22.909 121.03 83 86 84
35.24 22.926 120.95 83 83 85
35.98 23.199 122.18 81 84 81
36.424 23.092 121.45 79 83 79
37.01 23.161 121.62 78 84 80
37.59 23.22 121.73 78 84 78
38.064 23.153 121.2 78 83 80
38.759 23.338 121.94 76 82 78
39.342 23.393 122.01 75 81 78
39.95 23.47 122.2 77 80 78
40.462 23.446 121.86 78 81 78
41.103 23.553 122.18 77 80 80
41.738 23.65 122.44 73 80 76
42.371 23.742 122.67 75 77 81
43.364 24.173 124.6 73 75 74
47.684 27.704 142.09 43 39 24
49.425 28.727 146.93 41 36 23
50.12 28.768 146.83 41 37 23
50.877 28.862 146.99 41 38 24
51.684 28.998 147.34 71 76 76
52.39 29.041 147.23 73 74 68
53.236 29.201 147.69 36 31 20
53.999 29.287 147.77 32 30 15
54.644 29.275 147.35 31 27 15
55.502 29.432 147.77 30 27 16
56.292 29.532 147.89 33 27 17
57.111 29.65 148.09 33 30 17
57.874 29.723 148.06 34 27 17
58.743 29.872 148.4 31 26 15
59.476 29.918 148.22 28 26 15
60.326 30.045 148.43 28 25 15
61.166 30.163 148.57 30 28 14
61.498 29.924 146.99 29 26 14
59.298 27.953 137.09 26 23 15
58.578 27.042 132.3 0 0 0
59.272 27.099 132.17 0 0 0
59.548 26.88 130.71 0 0 0
59.85 26.685 129.37 0 0 0
60.291 26.584 128.47 0 0 0
60.71 26.472 127.51 0 0 0
60.876 26.206 125.83 0 0 0
61.358 26.142 125.09 0 0 0
61.612 25.94 123.71 0 0 0
61.498 25.524 121.33 0 0 0
61.657 25.281 119.75 0 0 0
62.41 25.39 119.81 0 0 0
62.961 25.38 119.31 0 0 0
64.408 25.881 121.15 0 0 0
64.821 25.789 120.25 0 0 0
65.836 26.034 120.89 0 0 0
66.952 26.328 121.74 0 0 0
-66.799 41.18 184.89 84 99 114
-64.797 40.623 183.2 85 101 122
-64.274 40.821 184.84 88 101 120
-62.71 40.478 184.06 82 95 116
-57.562 38.228 174.67 54 68 106
-44.67 31.778 146.16 80 100 115
-41.982 30.708 141.87 40 31 19
-40.995 30.546 141.68 43 36 19
-39.813 30.271 140.96 46 39 18
-38.336 29.825 139.42 48 40 19
-37.092 29.5 138.43 47 38 22
-36.34 29.451 138.69 49 40 22
-35.153 29.146 137.76 50 41 20
-34.183 28.962 137.37 51 44 21
-33.104 28.708 136.64 48 43 22
-32.605 28.8 137.51 48 43 20
-31.554 28.554 136.8 50 45 21
-30.392 28.233 135.71 51 42 21
-29.892 28.321 136.54 52 44 21
-28.559 27.878 134.85 52 45 22
-27.721 27.744 134.6 53 46 24
-27.024 27.699 134.77 52 45 24
-25.986 27.426 133.84 53 45 23
-24.963 27.154 132.9 51 44 23
-24.251 27.088 132.93 53 46 23
-23.443 26.953 132.63 52 46 23
-22.725 26.878 132.6 53 47 24
-21.735 26.604 131.6 54 49 25
-21.086 26.572 131.76 52 46 24
-20.251 26.399 131.23 51 48 22
-19.672 26.415 131.61 54 47 23
-18.752 26.169 130.7 53 46 24
-17.724 25.83 129.33 54 47 25
-17.071 25.779 129.35 53 50 25
-16.415 25.721 129.34 59 50 26
-15.606 25.537 128.69 56 48 25
-15.098 25.598 129.25 56 50 26
-14.22 25.345 128.25 51 48 27
-13.502 25.221 127.87 53 48 25
-12.848 25.151 127.75 56 49 28
-12.237 25.115 127.8 53 51 26
-11.603 25.057 127.73 54 54 27
-10.837 24.872 127.03 56 50 26
-10.176 24.781 126.78 54 52 25
-9.5193 24.69 126.52 56 52 26
-8.8562 24.588 126.21 57 53 28
-8.2376 24.527 126.09 57 51 26
-7.5397 24.381 125.54 55 49 26
-6.9187 24.309 125.36 58 51 28
-6.3487 24.291 125.43 55 50 26
-5.7185 24.203 125.16 55 53 27
-5.0777 24.099 124.79 56 54 28
-4.5053 24.071 124.8 56 50 26
-3.9298 24.037 124.78 53 47 27
-3.2087 23.819 123.82 56 50 27
-2.713 23.878 124.25 52 49 27
-2.1802 23.891 124.46 50 46 23
-1.5456 23.767 123.95 48 44 24
-1.2783 24.149 126.02 40 36 19
-0.97079 24.497 127.91 45 39 23
-0.78335 25.045 130.83 45 41 22
-0.23667 25.077 131.11 51 46 24
0.15247 25.362 132.68 50 44 24
0.57107 25.619 134.1 52 47 25
1.0541 25.784 135.04 51 46 25
1.5667 25.91 135.78 50 45 21
2.0253 26.144 137.08 51 44 24
2.5534 26.265 137.79 48 42 22
3.0835 26.391 138.53 51 45 24
3.4769 26.815 140.79 38 33 18
4.029 26.931 141.46 49 43 22
4.5561 27.116 142.48 46 41 23
5.0272 27.456 144.3 44 39 20
5.6423 27.464 144.4 45 39 20
6.1351 27.804 146.22 43 41 21
6.7436 27.853 146.52 43 39 20
7.285 28.114 147.92 42 37 21
7.834 28.387 149.37 41 37 19
8.4656 28.409 149.52 42 36 20
9.0591 28.58 150.44 41 36 18
9.657 28.762 151.41 36 32 17
10.261 28.951 152.41 34 30 17
10.907 28.969 152.53 33 29 16
11.546 29.033 152.87 32 27 14
12.189 29.08 153.13 22 18 12
12.892 28.694 151.14 43 39 34
13.582 28.268 148.95 57 56 50
14.274 27.619 145.6 69 67 60
14.933 27.051 142.66 73 72 69
15.57 26.408 139.33 78 77 73
16.189 25.348 133.84 90 92 87
16.768 22.815 120.76 103 98 97
17.279 22.544 119.34 100 101 104
17.791 22.594 119.57 93 98 103
18.299 22.541 119.27 90 95 97
18.808 22.535 119.2 92 98 100
19.329 22.638 119.69 92 97 98
19.84 22.638 119.65 91 95 97
20.355 22.661 119.72 90 95 94
20.869 22.673 119.73 91 93 94
21.383 22.68 119.71 90 96 99
21.901 22.71 119.81 91 94 93
22.414 22.712 119.76 91 96 95
22.952 22.811 120.2 92 94 92
23.456 22.773 119.94 92 92 91
23.981 22.811 120.05 90 94 95
24.522 22.895 120.4 90 94 89
25.041 22.904 120.37 90 92 92
25.55 22.885 120.18 88 92 89
26.077 22.912 120.23 89 90 89
26.622 22.986 120.51 86 93 90
27.12 22.939 120.17 86 92 93
27.693 23.066 120.71 88 94 87
28.212 23.066 120.6 86 93 87
28.717 23.037 120.35 88 89 89
29.25 23.067 120.38 84 89 87
29.785 23.097 120.41 87 89 85
30.311 23.11 120.35 85 90 85
30.912 23.251 120.94 82 88 84
31.435 23.253 120.81 84 87 86
31.97 23.273 120.77 83 87 85
32.513 23.306 120.79 84 87 85
33.138 23.46 121.42 81 86 79
33.624 23.4 120.97 87 87 83
34.201 23.475 121.18 80 84 82
34.709 23.451 120.9 82 84 83
35.374 23.636 121.66 81 87 80
35.885 23.613 121.37 81 86 79
36.465 23.678 121.52 80 84 80
36.977 23.656 121.22 78 80 78
37.605 23.774 121.62 79 83 80
38.133 23.77 121.41 78 83 75
38.754 23.872 121.72 78 82 79
39.369 23.962 121.96 79 82 79
39.891 23.948 121.68 79 81 81
40.485 24.011 121.77 76 81 78
41.233 24.232 122.65 77 79 81
41.779 24.238 122.44 72 78 78
42.361 24.279 122.41 73 77 74
43.594 24.955 125.5 73 79 75
47.756 28.407 142.19 40 36 22
49.463 29.418 146.85 40 37 24
50.216 29.514 147.01 40 36 23
50.864 29.51 146.67 41 37 22
51.671 29.648 147.03 72 74 76
52.418 29.728 147.09 69 68 55
53.217 29.851 147.34 33 30 17
54.121 30.056 147.99 32 27 15
54.739 30.021 147.47 29 24 14
55.526 30.122 147.59 30 26 15
56.138 30.082 147.03 33 28 16
57.175 30.375 148.06 33 30 17
58.009 30.503 148.28 32 28 15
58.731 30.543 148.08 30 24 14
59.584 30.678 148.32 31 25 15
60.346 30.744 148.22 29 26 16
61.104 30.804 148.08 28 26 15
61.124 30.337 145.45 29 24 15
59.292 28.586 136.8 26 25 13
58.648 27.707 132.27 0 0 0
59.034 27.556 131.15 0 0 0
59.62 27.543 130.68 0 0 0
59.869 27.307 129.17 0 0 0
60.227 27.149 128.02 0 0 0
60.4 26.877 126.33 0 0 0
60.714 26.701 125.1 0 0 0
61.504 26.83 125.25 0 0 0
61.77 26.63 123.9 0 0 0
61.168 25.906 120.16 0 0 0
61.747 25.913 119.75 0 0 0
62.481 26.013 119.75 0 0 0
63.377 26.205 120.16 0 0 0
64.355 26.441 120.75 0 0 0
64.981 26.469 120.41 0 0 0
66.172 26.818 121.48 0 0 0
67.018 26.965 121.64 0 0 0
-66.971 42.192 184.83 85 96 119
-65.849 42.084 185.15 86 100 120
-64.755 41.99 185.51 88 98 121
-63.655 41.891 185.84 69 86 119
-60.872 40.878 182.14 86 101 126
-55.093 38.202 171.04 74 90 124
-50.246 35.98 161.85 88 103 124
-42.237 31.932 144.44 75 97 107
-39.948 31.032 140.97 15 9 6
-39.16 30.973 141.22 31 19 10
-38.156 30.786 140.9 44 35 17
-36.551 30.241 138.94 47 38 19
-35.861 30.227 139.36 47 38 18
-34.548 29.838 138.06 48 41 22
-33.821 29.796 138.34 50 42 21
-32.383 29.313 136.58 48 40 20
-31.334 29.062 135.86 51 43 21
-30.574 28.987 135.94 50 42 20
-29.471 28.69 134.99 51 42 22
-28.504 28.473 134.39 52 45 22
-27.82 28.438 134.62 53 46 26
-27.113 28.386 134.76 51 43 24
-25.976 28.04 133.52 52 47 20
-25.343 28.032 133.85 50 42 23
-24.625 27.964 133.89 50 43 22
-23.895 27.886 133.87 52 47 23
-22.632 27.419 132 51 46 24
-21.822 27.27 131.63 54 49 26
-21.067 27.159 131.42 54 48 24
-20.421 27.126 131.58 55 47 25
-19.607 26.963 131.1 54 46 23
-18.809 26.806 130.65 55 47 25
-18.145 26.752 130.68 53 45 24
-17.397 26.627 130.36 52 46 24
-16.526 26.395 129.52 55 47 26
-15.764 26.248 129.08 55 47 24
-15.1 26.179 129 55 50 25
-14.236 25.933 128.06 55 49 27
-13.504 25.794 127.63 57 49 27
-13.046 25.899 128.38 55 47 25
-12.437 25.869 128.46 53 49 26
-11.554 25.578 127.27 56 48 26
-10.961 25.555 127.37 55 50 25
-10.369 25.532 127.47 54 49 26
-9.4906 25.22 126.14 54 50 27
-8.8626 25.151 126 53 49 26
-8.2606 25.107 125.97 55 50 26
-7.6281 25.027 125.77 54 50 29
-6.9943 24.942 125.53 53 50 26
-6.4171 24.917 125.58 55 51 27
-5.6622 24.686 124.61 54 50 27
-5.0877 24.656 124.62 55 52 27
-4.4906 24.597 124.48 52 49 27
-3.9061 24.551 124.4 54 50 27
-3.3239 24.505 124.32 55 49 29
-2.7487 24.465 124.26 52 47 26
-2.2586 24.537 124.75 49 49 25
-1.6344 24.428 124.34 49 48 26
-1.3318 24.771 126.17 43 37 21
-0.92332 24.979 127.33 47 41 24
-0.71848 25.511 130.1 41 37 19
-0.27848 25.708 131.2 50 43 25
0.1407 25.952 132.53 53 48 26
0.54211 26.243 134.09 53 44 26
1.0496 26.371 134.84 52 45 24
1.5783 26.47 135.43 51 44 24
2.1016 26.587 136.11 50 45 23
2.543 26.874 137.64 51 42 23
2.9648 27.225 139.49 50 43 24
3.4559 27.46 140.75 50 43 24
4.0611 27.461 140.84 47 41 22
4.5343 27.773 142.48 46 39 22
5.0157 28.097 144.17 48 40 20
5.5507 28.315 145.34 44 39 20
6.1054 28.505 146.35 45 38 18
6.7135 28.561 146.69 43 38 20
7.2734 28.775 147.82 42 37 18
7.8455 28.978 148.89 41 37 19
8.4437 29.117 149.63 42 33 17
9.0506 29.245 150.31 39 33 18
9.6668 29.356 150.9 36 32 16
10.26 29.595 152.14 35 29 16
10.881 29.742 152.9 32 27 15
11.532 29.749 152.95 27 24 12
12.185 29.745 152.94 20 16 13
12.885 29.373 151.07 41 40 36
13.578 28.92 148.79 57 56 51
14.286 28.081 144.56 70 66 63
14.946 27.424 141.24 73 71 70
15.566 27.024 139.21 78 76 70
16.191 25.747 132.75 93 91 86
16.766 23.344 120.63 104 101 96
17.277 23.055 119.15 100 101 103
17.789 23.095 119.32 93 98 102
18.304 23.17 119.67 93 100 97
18.814 23.134 119.45 93 99 98
19.329 23.175 119.62 92 97 100
19.844 23.198 119.69 92 96 98
20.357 23.198 119.65 91 96 91
20.867 23.187 119.54 90 92 96
21.386 23.223 119.67 89 96 97
21.902 23.236 119.68 90 95 94
22.411 23.221 119.54 92 95 99
22.928 23.24 119.57 88 94 92
23.453 23.284 119.72 87 94 93
24.01 23.433 120.39 90 93 97
24.515 23.396 120.12 90 95 92
25.046 23.44 120.26 88 91 89
25.57 23.462 120.28 90 92 88
26.086 23.46 120.19 89 91 92
26.628 23.524 120.41 89 92 87
27.123 23.47 120.04 88 93 93
27.702 23.611 120.64 88 91 91
28.186 23.535 120.15 87 90 87
28.747 23.623 120.48 88 90 86
29.29 23.672 120.6 90 91 86
29.79 23.631 120.28 84 90 83
30.384 23.769 120.83 86 86 85
30.921 23.795 120.83 87 86 85
31.486 23.868 121.06 84 87 85
32.044 23.924 121.19 83 86 84
32.561 23.91 120.98 81 86 85
33.092 23.92 120.88 84 86 84
33.647 23.965 120.95 82 86 83
34.192 23.994 120.93 82 84 83
34.739 24.023 120.9 80 84 84
35.36 24.153 121.38 83 87 84
36.01 24.314 121.99 80 84 85
36.548 24.321 121.84 80 83 78
37.114 24.363 121.86 80 83 78
37.668 24.389 121.8 80 82 82
38.273 24.475 122.02 78 81 80
38.816 24.483 121.86 79 81 81
39.359 24.492 121.7 79 83 80
40.085 24.705 122.52 79 82 79
40.579 24.656 122.06 77 80 80
41.223 24.768 122.39 78 81 78
41.723 24.726 121.95 76 78 77
42.468 24.936 122.73 74 77 75
43.789 25.711 126.21 33 31 18
48.002 29.283 143.09 38 35 21
49.514 30.124 146.82 42 36 24
50.352 30.3 147.35 39 35 22
51.067 30.356 147.31 40 34 20
51.739 30.371 147.05 74 71 72
52.508 30.471 147.2 65 62 48
53.337 30.621 147.57 32 26 19
53.918 30.553 146.9 28 26 15
54.893 30.819 147.8 27 23 12
55.558 30.82 147.44 29 26 15
56.425 30.985 147.85 32 27 16
57.148 31.03 147.68 34 29 16
57.896 31.094 147.59 30 26 17
58.822 31.293 148.12 30 25 14
59.701 31.45 148.44 29 26 14
60.433 31.492 148.23 29 25 17
61.208 31.566 148.15 27 23 13
61.163 31.04 145.29 28 24 16
59.003 29.017 135.58 30 25 15
58.729 28.383 132.26 0 0 0
58.974 28.129 130.7 0 0 0
59.559 28.115 130.22 0 0 0
59.962 27.979 129.19 0 0 0
60.09 27.664 127.34 0 0 0
60.778 27.726 127.19 0 0 0
60.858 27.391 125.25 0 0 0
61.253 27.268 124.27 0 0 0
61.446 27.02 122.72 0 0 0
61.208 26.51 120.01 0 0 0
61.849 26.555 119.77 0 0 0
62.481 26.594 119.49 0 0 0
63.481 26.853 120.18 0 0 0
64.176 26.925 120.03 0 0 0
65.249 27.217 120.83 0 0 0
66.206 27.436 121.3 0 0 0
67.074 27.598 121.51 0 0 0
-66.774 43.012 183.93 83 97 115
-65.808 42.985 184.6 86 98 120
-65.017 43.052 185.66 85 99 120
-63.029 42.467 183.92 74 84 116
-61.841 42.31 184 87 100 117
-60.594 42.117 183.9 87 101 123
-60.748 42.713 187.2 88 101 119
-57.649 41.46 182.47 86 98 117
-40.656 32.129 142.43 9 6 7
-38.197 31.093 138.41 8 6 4
-37.847 31.283 139.76 9 6 6
-36.66 30.975 138.9 15 9 7
-36.551 31.316 140.89 31 19 10
-34.663 30.569 138.06 45 34 17
-33.964 30.545 138.42 47 36 19
-32.532 30.056 136.69 48 38 19
-31.742 29.966 136.73 45 38 18
-31.004 29.908 136.9 48 39 18
-29.904 29.61 135.97 48 40 21
-28.874 29.351 135.21 51 42 20
-27.903 29.124 134.57 51 42 23
-27.202 29.076 134.75 54 44 22
-26.135 28.771 133.73 52 42 22
-25.394 28.689 133.73 51 43 22
-24.522 28.509 133.26 49 43 20
-23.532 28.239 132.37 52 43 20
-22.829 28.172 132.4 52 44 20
-22.072 28.062 132.22 53 45 22
-21.217 27.875 131.68 54 48 23
-20.552 27.829 131.78 51 44 24
-19.72 27.649 131.25 53 47 22
-19.011 27.562 131.14 54 47 22
-18.269 27.445 130.89 52 47 23
-17.298 27.134 129.71 53 48 23
-16.58 27.026 129.48 53 48 24
-15.838 26.893 129.12 53 47 24
-15.249 26.889 129.36 53 47 26
-14.538 26.777 129.08 55 50 27
-13.86 26.689 128.91 55 46 27
-13.015 26.445 127.99 55 48 27
-12.221 26.238 127.24 53 47 27
-11.606 26.195 127.26 55 46 26
-10.981 26.14 127.21 56 48 27
-10.244 25.972 126.62 57 50 27
-9.769 26.064 127.26 59 50 25
-8.9963 25.848 126.43 54 50 26
-8.3293 25.736 126.08 56 50 26
-7.5849 25.534 125.3 54 50 25
-7.0758 25.586 125.73 56 50 26
-6.4441 25.499 125.49 57 50 26
-5.7037 25.281 124.6 55 51 27
-5.2382 25.383 125.25 52 50 26
-4.6713 25.364 125.32 51 50 25
-3.9491 25.148 124.43 54 50 25
-3.412 25.161 124.64 53 49 26
-2.8029 25.078 124.38 54 49 28
-2.2064 25.008 124.17 50 45 25
-1.7406 25.118 124.84 50 47 26
-1.3241 25.306 125.88 40 36 20
-1.0954 25.789 128.35 39 35 19
-0.74645 26.116 130.07 48 43 24
-0.22351 26.185 130.52 47 43 24
0.067276 26.645 132.88 43 36 20
0.54769 26.811 133.8 54 49 24
1.0078 27.025 134.95 52 45 25
1.5121 27.174 135.78 49 43 24
1.9756 27.412 137.05 49 45 26
2.4576 27.634 138.22 51 41 22
2.9457 27.861 139.43 49 41 22
3.4512 28.071 140.54 51 44 24
3.9285 28.365 142.06 48 42 22
4.4973 28.468 142.65 48 40 21
5.0228 28.691 143.81 48 38 22
5.5417 28.957 145.18 45 38 20
6.1093 29.115 146.02 45 38 23
6.6474 29.381 147.39 43 38 18
7.2466 29.486 147.96 43 36 19
7.8674 29.532 148.23 43 36 20
8.4379 29.77 149.44 40 35 17
9.0405 29.918 150.21 38 32 17
9.6353 30.126 151.27 35 29 17
10.256 30.252 151.92 33 29 13
10.879 30.39 152.62 32 26 14
11.508 30.528 153.32 29 24 14
12.184 30.386 152.63 20 15 12
12.882 30.024 150.86 42 39 34
13.576 29.549 148.52 56 55 50
14.281 28.728 144.47 71 67 60
14.928 28.265 142.18 72 68 66
15.564 27.617 138.97 75 77 72
16.19 26.264 132.29 97 94 91
16.764 23.863 120.43 104 101 95
17.278 23.723 119.72 102 102 104
17.789 23.668 119.42 92 94 95
18.298 23.607 119.09 88 96 99
18.818 23.726 119.64 92 95 98
19.336 23.773 119.84 92 98 95
19.847 23.755 119.71 92 96 97
20.358 23.737 119.57 91 93 92
20.874 23.756 119.61 91 96 95
21.387 23.751 119.54 89 92 94
21.91 23.8 119.72 90 94 91
22.438 23.862 119.96 91 95 90
22.974 23.948 120.32 88 95 93
23.48 23.908 120.05 88 93 94
24.014 23.971 120.29 90 94 92
24.53 23.968 120.19 89 91 91
25.054 23.99 120.22 91 92 90
25.566 23.976 120.06 89 93 91
26.113 24.059 120.37 89 93 90
26.594 23.961 119.8 88 90 91
27.157 24.075 120.25 91 92 89
27.709 24.153 120.53 84 89 88
28.266 24.237 120.83 88 90 89
28.794 24.25 120.78 89 89 86
29.301 24.22 120.52 89 90 87
29.857 24.288 120.72 85 88 86
30.396 24.32 120.75 85 89 84
30.977 24.425 121.13 85 84 84
31.52 24.457 121.15 86 86 85
32.047 24.46 121.02 81 83 81
32.582 24.476 120.95 81 87 80
33.133 24.516 121 82 85 82
33.726 24.617 121.33 82 86 83
34.27 24.64 121.28 82 86 83
34.81 24.658 121.2 84 84 84
35.374 24.706 121.26 80 81 82
35.93 24.743 121.26 81 82 83
36.53 24.835 121.52 81 82 86
37.035 24.799 121.17 79 83 81
37.713 24.984 121.86 78 82 81
38.294 25.041 121.93 81 82 82
38.889 25.111 122.06 80 82 82
39.491 25.187 122.22 79 81 78
40.044 25.203 122.08 78 81 82
40.581 25.201 121.86 76 81 79
41.265 25.359 122.38 77 79 74
41.829 25.383 122.27 75 76 78
42.553 25.573 122.92 73 77 78
44.178 26.673 127.85 33 29 18
48.426 30.347 144.82 39 35 23
49.634 30.9 147.11 40 34 21
50.366 30.976 147.15 38 35 20
51.01 30.965 146.78 38 34 21
51.848 31.135 147.25 69 73 70
52.612 31.231 147.36 56 46 36
53.436 31.377 147.7 31 27 18
54.246 31.506 147.95 29 24 14
55.005 31.587 147.96 27 20 13
55.745 31.65 147.89 28 25 15
56.436 31.67 147.61 31 27 16
57.251 31.79 147.78 31 25 16
58.072 31.912 147.94 30 26 16
58.89 32.028 148.07 29 26 14
59.859 32.257 148.71 27 24 13
60.43 32.176 147.92 28 24 14
61.298 32.32 148.15 28 22 13
60.629 31.32 143.22 28 25 14
59.067 29.696 135.51 26 23 13
58.836 29.079 132.34 0 0 0
58.95 28.726 130.35 0 0 0
59.625 28.775 130.16 0 0 0
60.075 28.668 129.26 0 0 0
60.297 28.409 127.69 0 0 0
60.809 28.352 127.01 0 0 0
60.784 27.94 124.77 0 0 0
61.362 27.935 124.31 0 0 0
61.458 27.618 122.49 0 0 0
60.939 26.918 119 0 0 0
61.921 27.18 119.7 0 0 0
62.771 27.355 120 0 0 0
63.42 27.402 119.75 0 0 0
64.611 27.776 120.89 0 0 0
65.498 27.96 121.19 0 0 0
66.273 28.074 121.19 0 0 0
67.186 28.266 121.51 0 0 0
-68.501 44.867 187.32 84 96 117
-66.004 44.014 184.58 83 96 116
-64.92 43.922 184.97 85 98 125
-63.796 43.805 185.25 63 82 117
-63.041 43.894 186.38 83 100 123
-61.89 43.76 186.56 68 81 116
-59.263 42.771 183.11 63 88 118
-58.146 42.64 183.26 88 103 124
-49.003 37.76 163.14 87 101 121
-40.817 33.334 144.79 8 6 6
-38.906 32.601 142.18 8 6 5
-36.708 31.674 138.69 8 5 5
-36.455 31.933 140.3 8 6 6
-34.971 31.424 138.57 9 6 5
-33.929 31.183 138 15 9 6
-32.948 30.976 137.54 32 19 10
-31.871 30.7 136.78 47 34 17
-30.988 30.545 136.53 46 37 17
-29.916 30.26 135.7 47 38 18
-28.802 29.937 134.68 50 38 19
-28.05 29.856 134.72 48 42 23
-27.392 29.839 135.04 49 42 20
-26.595 29.721 134.9 50 42 24
-25.464 29.36 133.66 48 40 20
-24.505 29.114 132.91 50 41 23
-23.784 29.038 132.92 50 44 21
-22.985 28.9 132.64 51 42 20
-22.332 28.869 132.84 54 46 23
-21.24 28.496 131.48 52 46 21
-20.401 28.311 130.95 51 46 23
-19.571 28.128 130.43 54 47 24
-18.994 28.145 130.8 53 46 23
-18.072 27.876 129.86 53 49 22
-17.281 27.707 129.38 51 45 22
-16.634 27.658 129.42 53 48 23
-15.899 27.529 129.1 53 47 22
-15.225 27.45 129 53 47 26
-14.535 27.354 128.8 55 49 26
-13.696 27.115 127.95 54 48 26
-13.169 27.163 128.4 57 50 29
-12.545 27.118 128.43 55 48 26
-11.784 26.937 127.82 56 48 25
-10.866 26.591 126.42 55 48 27
-10.415 26.709 127.18 56 50 24
-9.7296 26.587 126.82 52 47 25
-9.1019 26.52 126.71 54 50 24
-8.3138 26.276 125.76 53 48 26
-7.7185 26.236 125.75 55 49 26
-7.0931 26.159 125.58 52 48 25
-6.3925 25.991 124.96 55 49 24
-5.8124 25.959 124.97 53 47 25
-5.2741 25.976 125.22 54 49 28
-4.5843 25.803 124.56 56 52 25
-4.04 25.81 124.75 54 48 26
-3.4635 25.773 124.72 55 49 26
-2.8484 25.682 124.43 52 48 27
-2.2507 25.61 124.23 53 46 28
-1.7794 25.716 124.86 49 48 25
-1.3495 25.891 125.82 40 36 22
-1.0566 26.286 127.83 38 33 20
-0.76318 26.705 129.95 46 38 20
-0.26594 26.819 130.61 49 43 23
0.098241 27.166 132.38 48 42 24
0.51116 27.451 133.85 50 45 23
1.0262 27.572 134.53 51 43 22
1.4908 27.797 135.71 52 45 24
1.9581 28.035 136.95 51 42 26
2.4974 28.145 137.57 48 40 22
2.9207 28.512 139.42 48 42 21
3.4216 28.738 140.59 47 40 20
3.9471 28.928 141.58 48 39 23
4.48 29.119 142.57 44 38 20
4.9826 29.408 144.03 47 39 21
5.5078 29.666 145.34 46 40 21
6.0538 29.895 146.51 44 36 20
6.6507 29.996 147.05 45 37 21
7.2533 30.091 147.56 42 35 20
7.8525 30.211 148.19 39 35 18
8.4012 30.539 149.81 38 33 19
9.0198 30.636 150.31 36 33 17
9.6147 30.854 151.4 36 30 15
10.218 31.074 152.49 33 28 16
10.852 31.178 153.01 30 26 14
11.521 31.093 152.62 27 20 12
12.18 31.046 152.41 20 15 14
12.877 30.689 150.69 41 39 33
13.576 30.16 148.15 58 59 53
14.256 29.614 145.51 67 63 58
14.912 29.081 142.93 71 66 63
15.563 28.181 138.58 78 74 72
16.192 26.688 131.37 98 94 94
16.762 24.4 120.32 103 103 98
17.275 24.209 119.38 95 99 98
17.79 24.256 119.58 96 102 101
18.3 24.2 119.28 92 98 98
18.818 24.266 119.56 92 97 96
19.331 24.259 119.5 92 95 103
19.843 24.247 119.39 93 93 98
20.365 24.314 119.67 91 93 94
20.872 24.266 119.39 92 93 92
21.419 24.457 120.25 93 92 95
21.937 24.464 120.23 91 95 92
22.456 24.472 120.21 87 92 90
22.972 24.468 120.12 90 94 94
23.461 24.36 119.53 91 94 91
24.021 24.523 120.24 91 95 93
24.543 24.538 120.23 90 91 91
25.058 24.529 120.11 90 91 92
25.586 24.558 120.16 89 91 92
26.123 24.612 120.32 90 93 90
26.63 24.58 120.07 89 91 92
27.207 24.727 120.67 89 92 91
27.71 24.683 120.36 85 91 90
28.255 24.738 120.52 91 88 87
28.776 24.739 120.4 86 92 86
29.366 24.881 120.96 86 89 83
29.853 24.809 120.5 85 87 87
30.424 24.903 120.81 86 88 85
30.986 24.973 121.02 84 87 84
31.53 25.006 121.04 87 86 86
32.058 25.01 120.91 82 87 82
32.642 25.106 121.22 85 87 86
33.141 25.06 120.85 84 84 81
33.75 25.189 121.3 81 83 83
34.286 25.2 121.19 83 85 83
34.811 25.193 121 82 86 84
35.418 25.304 121.35 82 82 82
35.913 25.255 120.94 81 82 79
36.549 25.398 121.43 81 84 83
37.234 25.598 122.18 80 83 83
37.724 25.538 121.71 81 82 81
38.246 25.522 121.44 78 83 80
38.885 25.649 121.83 78 82 80
39.456 25.69 121.81 80 82 83
40.035 25.737 121.82 76 81 79
40.666 25.842 122.08 79 81 79
41.262 25.903 122.14 80 78 75
41.993 26.109 122.86 75 76 72
42.763 26.347 123.72 75 74 76
44.767 27.859 130.43 35 30 18
48.452 31.023 144.67 36 36 22
49.711 31.638 147.19 38 34 20
50.401 31.671 147.03 36 32 21
51.118 31.73 146.98 37 33 20
51.878 31.828 147.09 71 74 72
52.779 32.052 147.78 53 43 36
53.357 31.975 147.09 29 24 15
54.201 32.138 147.48 28 26 15
54.966 32.227 147.52 26 21 14
55.764 32.342 147.67 28 25 13
56.553 32.445 147.76 32 27 15
57.447 32.631 148.21 30 26 13
58.248 32.736 148.29 30 24 13
58.944 32.753 147.97 27 22 15
59.761 32.867 148.06 28 23 14
60.65 33.032 148.38 29 25 12
61.355 33.052 148.04 28 24 14
60.686 32.03 143.11 27 22 13
59.003 30.282 135.01 24 21 12
58.866 29.723 132.16 0 0 0
59.06 29.42 130.42 0 0 0
59.602 29.373 129.81 0 0 0
