-21.315 -24.34 211.7 150 159 194
-20.497 -24.381 212.42 145 163 189
-19.509 -24.316 212.14 147 161 193
-18.622 -24.313 212.44 149 163 190
-17.716 -24.299 212.62 147 161 190
-16.738 -24.235 212.33 144 158 190
-15.85 -24.23 212.59 145 159 194
-14.898 -24.18 212.4 143 159 192
-14.004 -24.169 212.59 146 159 189
-13.062 -24.123 212.43 144 154 180
-12.214 -24.148 212.94 142 155 189
-11.387 -24.192 213.61 140 154 184
-10.541 -24.223 214.17 140 153 185
-9.3396 -23.948 211.82 140 155 182
-8.5944 -24.064 213.16 139 153 182
-7.5332 -23.895 211.8 138 154 180
-6.6617 -23.897 212.04 138 150 181
-5.9074 -24.017 213.41 135 150 176
-4.992 -23.98 213.26 134 151 176
-3.8429 -23.685 210.68 133 146 173
-2.973 -23.683 210.85 24 39 125
-2.2595 -23.866 212.79 19 31 114
-1.3623 -23.839 212.72 14 27 93
-0.48122 -23.831 212.82 14 28 91
0.3883 -23.838 213.07 15 26 90
1.3479 -23.716 212.07 14 26 90
2.1521 -23.82 213.23 15 27 89
3.0795 -23.736 212.58 13 24 83
3.8985 -23.832 213.64 13 23 85
4.7876 -23.81 213.57 14 24 80
5.6297 -23.881 214.39 13 24 84
6.5016 -23.9 214.7 12 24 82
7.3894 -23.885 214.68 12 24 85
8.2997 -23.809 214.07 11 21 77
9.2118 -23.712 213.25 10 20 72
10.047 -23.849 214.66 10 19 71
10.942 -23.795 214.25 9 17 66
11.822 -23.794 214.33 9 16 67
13.045 -21.925 196.45 12 22 81
14.411 -18.053 159.27 129 128 90
15.139 -17.384 152.89 104 99 59
15.78 -17.262 151.76 84 83 44
16.408 -17.236 151.56 76 71 40
17.034 -17.198 151.23 66 61 36
17.66 -17.189 151.17 62 57 31
18.282 -17.148 150.81 58 52 28
18.908 -17.157 150.92 52 45 28
19.529 -17.135 150.73 52 48 25
20.156 -17.145 150.84 50 46 25
20.772 -17.108 150.5 48 46 26
21.388 -17.078 150.21 50 46 26
22.024 -17.116 150.58 49 43 25
22.644 -17.101 150.44 48 45 28
23.263 -17.084 150.26 48 46 27
23.899 -17.11 150.5 48 46 26
24.563 -17.189 151.24 48 47 26
25.231 -17.262 151.93 50 49 27
25.959 -17.43 153.52 48 45 27
27.126 -18.308 161.95 63 62 41
28.756 -19.8 176.28 50 50 40
29.437 -19.723 175.49 122 136 149
30.175 -19.732 175.53 47 47 27
30.91 -19.735 175.5 53 54 35
31.651 -19.745 175.53 152 163 189
32.344 -19.696 174.99 151 162 186
33.077 -19.697 174.93 145 159 182
33.799 -19.685 174.74 143 157 186
34.527 -19.68 174.61 143 155 183
35.286 -19.706 174.77 143 155 179
36.038 -19.724 174.84 139 149 177
36.772 -19.722 174.73 142 152 180
37.521 -19.734 174.73 138 147 173
38.271 -19.745 174.74 133 147 170
38.943 -19.69 174.08 133 146 172
39.766 -19.761 174.64 132 142 169
40.458 -19.724 174.16 133 143 165
41.274 -19.783 174.59 129 144 163
41.995 -19.768 174.3 128 139 165
42.755 -19.781 174.28 131 137 161
43.529 -19.804 174.35 128 139 156
44.261 -19.796 174.12 125 138 161
45.091 -19.854 174.5 123 136 155
45.884 -19.884 174.61 120 136 160
46.64 -19.889 174.48 122 135 154
47.444 -19.922 174.62 120 133 156
48.168 -19.907 174.28 121 131 151
48.945 -19.922 174.23 119 131 150
49.795 -19.979 174.56 118 130 147
50.544 -19.976 174.32 118 129 147
51.392 -20.027 174.58 115 129 147
52.186 -20.046 174.55 114 127 140
52.995 -20.073 174.56 112 124 146
53.801 -20.096 174.55 110 121 139
54.654 -20.142 174.73 111 121 140
55.448 -20.157 174.62 108 119 137
56.27 -20.184 174.62 107 117 139
57.07 -20.2 174.5 107 119 137
57.919 -20.238 174.58 105 116 133
58.616 -20.204 173.99 103 117 127
59.498 -20.255 174.18 105 113 125
60.458 -20.337 174.65 98 114 126
61.245 -20.342 174.39 101 110 127
62.239 -20.434 174.93 99 112 128
63.048 -20.446 174.72 99 110 121
63.92 -20.483 174.74 97 109 126
64.728 -20.492 174.49 98 109 121
65.569 -20.514 174.35 96 104 121
66.51 -20.574 174.55 97 105 119
67.497 -20.65 174.89 92 102 117
68.427 -20.701 174.99 93 103 116
69.102 -20.656 174.21 92 102 110
70.099 -20.73 174.5 90 99 112
71.139 -20.816 174.9 89 96 112
72.18 -20.901 175.26 87 97 108
73.157 -20.96 175.38 88 94 104
74.06 -20.991 175.25 83 91 101
75.29 -21.133 176.1 79 85 93
77.057 -21.452 178.52 70 83 97
78.219 -21.561 179.03 22 17 17
78.632 -21.42 177.33 0 0 0
79.629 -21.473 177.33 0 0 0
79.891 -21.289 175.22 0 0 0
80.69 -21.278 174.65 0 0 0
80.848 -21.069 172.32 0 0 0
81.351 -20.97 170.96 0 0 0
81.407 -20.738 168.43 0 0 0
80.35 -20.178 163.04 0 0 0
78.307 -19.34 155.26 0 0 0
-71.561 -25.72 205.59 121 136 167
-70.807 -25.78 206.9 119 134 173
-69.543 -25.696 206.98 123 135 169
-68.477 -25.666 207.52 91 110 156
-67.393 -25.631 207.99 125 139 174
-65.773 -25.437 207.08 126 142 168
-65.877 -25.751 210.56 127 142 175
-62.977 -25.169 206.24 129 143 177
-62.487 -25.306 208.17 123 128 167
-61.033 -25.15 207.52 128 146 175
-60.201 -25.183 208.52 135 149 179
-59.227 -25.173 209.13 133 149 182
-58.108 -25.116 209.31 134 150 182
-56.694 -24.962 208.62 93 115 170
-54.961 -24.7 206.94 140 153 188
-53.883 -24.648 207.12 138 153 194
-47.772 -22.903 192.09 106 139 184
-36.693 -19.419 161.28 109 112 115
-35.009 -19.085 158.74 168 179 185
-33.944 -18.958 158.05 237 245 252
-33.199 -18.941 158.35 184 211 249
-32.586 -18.971 159.07 143 162 187
-31.834 -18.951 159.33 98 103 107
-30.723 -18.798 158.36 114 120 116
-30.131 -18.835 159.13 120 126 127
-29.902 -19.012 161.18 104 106 94
-29.21 -19.015 161.62 105 106 91
-28.526 -19.022 162.09 113 117 102
-27.866 -19.038 162.64 116 122 117
-27.699 -19.255 165.06 120 120 116
-26.812 -19.183 164.77 105 108 102
-26.68 -19.424 167.41 107 115 106
-25.699 -19.312 166.74 100 96 83
-25.06 -19.345 167.42 117 119 97
-25.554 -19.878 172.81 79 86 67
-26.623 -20.688 180.82 104 105 102
-28.52 -21.906 192.7 135 152 181
-31.996 -23.903 212 135 154 179
-30.828 -23.774 211.21 95 99 85
-30.312 -23.956 213.35 91 93 76
-28.874 -23.691 211.24 92 93 82
-28.293 -23.846 213.12 158 172 209
-27.433 -23.864 213.69 162 175 204
-26.352 -23.768 213.16 161 179 208
-25.244 -23.654 212.45 129 144 172
-24.429 -23.695 213.21 143 161 193
-23.367 -23.6 212.66 147 164 194
-22.556 -23.644 213.44 147 163 194
-21.453 -23.52 212.59 147 160 192
-20.425 -23.436 212.12 146 161 194
-19.527 -23.427 212.36 145 164 186
-18.644 -23.427 212.69 149 159 192
-17.631 -23.344 212.2 143 160 194
-16.642 -23.273 211.82 141 160 193
-15.876 -23.35 212.86 145 162 191
-14.954 -23.322 212.88 144 156 189
-13.912 -23.207 212.05 143 157 189
-12.285 -22.655 206.94 146 156 189
-10.147 -21.682 197.67 141 154 190
-9.1702 -21.557 196.69 141 152 183
-7.9551 -21.232 193.74 139 151 184
-6.7805 -20.92 190.9 11 21 72
-5.7281 -20.692 188.88 136 152 179
-4.8343 -20.59 188.09 137 150 178
-4.1291 -20.656 188.95 10 19 63
-3.0029 -20.322 185.85 11 19 63
-1.8619 -19.947 182.33 10 19 64
-0.9341 -19.763 180.69 10 19 63
-0.27005 -19.851 181.74 9 19 62
0.65254 -19.653 179.94 12 19 60
1.2773 -19.793 181.49 18 26 73
2.1511 -19.634 180.07 9 16 59
2.8974 -19.628 180.16 84 98 138
3.6434 -19.622 180.25 129 147 173
4.5079 -19.441 178.58 128 145 169
5.2445 -19.439 178.69 127 144 167
5.9866 -19.427 178.71 131 145 169
6.7198 -19.432 178.87 125 140 164
7.3664 -19.605 180.72 124 139 161
7.7629 -20.337 188.14 124 141 164
7.8182 -21.994 204.78 89 89 53
8.3653 -22.741 212.36 71 68 40
9.1801 -22.901 214.08 65 65 35
10.055 -22.915 214.32 62 62 37
10.969 -22.786 213.13 60 58 35
11.835 -22.826 213.63 60 57 36
13.026 -21.181 197.25 63 58 33
14.409 -17.372 159.17 130 127 90
15.129 -16.795 153.43 104 105 59
15.775 -16.624 151.77 87 79 49
16.404 -16.563 151.21 75 73 40
17.029 -16.556 151.18 70 64 37
17.653 -16.538 151.03 64 60 32
18.279 -16.546 151.14 58 57 30
18.9 -16.513 150.84 55 54 27
19.521 -16.495 150.68 52 50 28
20.137 -16.457 150.31 55 51 28
20.774 -16.511 150.86 52 50 27
21.382 -16.452 150.28 51 49 29
22.006 -16.452 150.29 53 48 29
22.649 -16.503 150.8 53 52 29
23.265 -16.478 150.54 50 51 28
23.877 -16.449 150.24 50 47 29
24.525 -16.495 150.69 50 47 26
25.166 -16.52 150.92 46 44 25
25.886 -16.676 152.46 42 43 25
27.068 -17.552 161.22 61 57 36
28.678 -18.962 175.32 38 37 28
29.416 -18.973 175.39 109 116 119
30.131 -18.952 175.13 146 164 181
30.873 -18.966 175.23 50 51 32
31.599 -18.96 175.11 145 161 181
32.375 -19.011 175.55 148 161 193
33.048 -18.943 174.8 143 161 185
33.791 -18.956 174.85 145 162 184
34.531 -18.963 174.84 141 155 182
35.248 -18.946 174.59 140 156 175
35.989 -18.954 174.57 139 153 181
36.755 -18.982 174.75 138 151 174
37.469 -18.963 174.46 139 146 169
38.185 -18.948 174.2 136 147 171
38.975 -18.991 174.52 133 146 175
39.735 -19.009 174.57 132 146 167
40.47 -19.006 174.41 133 142 168
41.233 -19.024 174.46 131 142 161
42.041 -19.072 174.8 131 141 161
42.768 -19.061 174.54 129 143 162
43.534 -19.076 174.55 128 140 165
44.312 -19.098 174.61 126 137 157
45.031 -19.082 174.29 126 137 160
45.803 -19.099 174.28 123 135 159
46.636 -19.151 174.62 124 133 157
47.379 -19.148 174.41 126 133 155
48.154 -19.162 174.36 121 132 153
48.978 -19.203 174.58 119 130 149
49.753 -19.215 174.5 119 131 146
50.552 -19.24 174.53 116 130 148
51.382 -19.279 174.7 118 127 147
52.142 -19.28 174.49 111 125 143
52.914 -19.287 174.33 112 123 143
53.694 -19.298 174.2 112 123 141
54.557 -19.347 174.44 108 123 140
55.394 -19.382 174.54 110 121 140
56.215 -19.409 174.54 107 117 136
56.961 -19.399 174.19 103 118 133
57.808 -19.435 174.27 105 116 133
58.735 -19.504 174.66 104 116 132
59.571 -19.532 174.64 104 115 133
60.277 -19.503 174.07 102 113 122
61.313 -19.612 174.83 101 114 122
62.205 -19.658 174.97 103 108 130
63.051 -19.684 174.9 99 109 123
63.848 -19.69 174.63 100 110 122
64.724 -19.725 174.64 97 107 123
65.565 -19.746 174.5 96 104 122
66.497 -19.8 174.68 95 103 115
67.355 -19.825 174.56 93 104 111
68.323 -19.889 174.8 94 103 112
69.333 -19.965 175.16 94 99 112
70.308 -20.027 175.36 90 98 109
71.273 -20.083 175.5 88 98 106
72.025 -20.064 174.93 85 95 102
73.117 -20.16 175.43 89 93 104
73.901 -20.151 174.93 81 89 98
75.064 -20.266 175.58 71 75 77
76.921 -20.601 178.28 54 72 88
77.749 -20.599 177.82 15 12 13
78.107 -20.45 175.97 0 0 0
78.921 -20.445 175.47 0 0 0
79.668 -20.419 174.76 0 0 0
79.772 -20.199 172.26 0 0 0
80.61 -20.204 171.83 0 0 0
80.242 -19.854 168.13 0 0 0
80.838 -19.791 167.09 0 0 0
80.178 -19.37 162.76 0 0 0
77.886 -18.495 154.33 0 0 0
-72.581 -25.012 208.16 118 133 165
-70.87 -24.815 207.22 94 107 151
-70.437 -24.96 209.32 122 137 168
-68.882 -24.8 208.69 60 91 156
-67.344 -24.641 208.04 48 83 151
-66.298 -24.616 208.58 79 95 157
-64.188 -24.288 206.37 123 141 177
-63.668 -24.41 208.22 81 133 174
-62.047 -24.213 207.16 124 138 172
-60.865 -24.142 207.22 131 141 175
-60.702 -24.374 210.06 107 114 167
-58.636 -24.034 207.64 86 132 182
-58.331 -24.227 210.1 135 151 185
-56.498 -23.95 208.21 120 127 179
-54.633 -23.656 206.14 137 153 184
-53.928 -23.723 207.41 139 153 186
-44.569 -21 182.55 138 158 188
-37.117 -18.827 162.7 100 107 104
-35.037 -18.377 158.94 112 111 97
-33.927 -18.24 158.11 112 119 110
-33.076 -18.187 158.07 130 131 132
-32.387 -18.189 158.53 201 207 218
-31.715 -18.197 159.05 230 239 247
-30.859 -18.139 158.93 169 193 225
-30.388 -18.22 160.12 115 124 116
-29.683 -18.216 160.51 109 112 102
-29.195 -18.294 161.67 112 114 98
-28.488 -18.291 162.06 115 122 115
-27.937 -18.348 163.01 114 118 107
-27.633 -18.503 164.91 112 118 109
-27.128 -18.584 166.09 102 100 88
-27.402 -18.981 170.34 86 90 72
-26.906 -19.076 171.67 98 101 84
-26.763 -19.322 174.46 97 98 81
-27.009 -19.741 178.95 97 96 82
-27.608 -20.327 185.09 130 149 175
-31.657 -22.447 206.35 127 147 171
-32.208 -23.083 213.06 121 140 161
-31.131 -23.002 212.69 89 90 78
-30.15 -22.963 212.73 88 89 73
-29.185 -22.93 212.82 116 104 120
-28.308 -22.939 213.31 134 160 201
-27.252 -22.86 212.93 145 162 190
-26.152 -22.756 212.28 141 165 196
-25.581 -22.92 214.29 135 164 195
-24.482 -22.813 213.6 144 157 184
-23.343 -22.681 212.64 149 163 192
-22.279 -22.585 212.03 146 162 199
-21.461 -22.622 212.75 146 162 193
-20.383 -22.512 211.98 148 164 198
-19.358 -22.428 211.47 148 162 197
-18.384 -22.37 211.21 146 160 196
-17.695 -22.487 212.7 146 162 193
-16.546 -22.318 211.3 146 156 190
-15.659 -22.31 211.53 143 157 187
-14.868 -22.367 212.4 141 157 184
-13.204 -21.828 207.2 143 159 192
-5.8654 -17.244 160.73 138 151 183
-3.1638 -15.761 145.81 135 145 175
-2.4178 -15.656 144.91 38 48 104
-1.7104 -15.574 144.26 10 21 71
-0.98101 -15.469 143.36 7 13 61
-0.2534 -15.359 142.39 8 14 58
0.34745 -15.35 142.46 7 14 53
0.94445 -15.344 142.56 6 14 55
1.5411 -15.339 142.66 6 13 54
2.2871 -15.189 141.26 7 14 55
2.8742 -15.187 141.38 7 14 53
3.5107 -15.133 140.96 7 14 53
4.0562 -15.175 141.52 6 13 51
4.668 -15.144 141.34 7 13 48
5.2369 -15.163 141.65 7 12 51
5.8551 -15.121 141.34 7 12 51
6.5793 -14.934 139.51 6 11 49
7.0453 -15.091 141.25 5 12 46
7.7471 -14.912 139.5 6 12 45
8.2545 -15.023 140.76 6 12 45
8.8543 -14.991 140.53 7 12 46
9.3611 -15.129 142.05 5 12 46
9.8712 -15.283 143.74 6 12 45
9.8583 -16.623 157.79 124 142 166
8.6394 -21.18 205.35 76 77 43
9.2131 -21.91 213.08 68 66 39
10.058 -21.999 214.12 64 63 38
10.925 -22.037 214.62 59 58 35
11.817 -21.99 214.23 61 58 34
13.008 -20.424 197.96 60 58 37
14.401 -16.731 159.44 129 128 88
15.126 -16.148 153.41 99 94 51
15.769 -16.007 151.98 90 86 48
16.398 -15.951 151.45 78 74 42
17.024 -15.936 151.33 70 67 37
17.648 -15.915 151.15 64 62 34
18.27 -15.889 150.91 60 58 32
18.889 -15.846 150.49 59 53 32
19.517 -15.874 150.8 59 55 30
20.125 -15.803 150.08 56 54 30
20.765 -15.874 150.84 55 51 29
21.375 -15.823 150.31 55 52 27
22.02 -15.886 150.98 57 54 30
22.621 -15.821 150.3 54 52 31
23.253 -15.839 150.48 53 51 29
23.884 -15.851 150.6 53 49 27
24.514 -15.858 150.66 49 45 26
25.165 -15.902 151.11 45 45 26
25.873 -16.031 152.44 45 43 27
26.91 -16.649 158.88 58 55 33
28.547 -18.055 173.56 37 36 24
29.384 -18.21 175.15 85 94 94
30.117 -18.215 175.15 129 144 163
30.859 -18.229 175.24 50 45 28
31.624 -18.269 175.6 131 151 162
32.342 -18.252 175.36 149 162 183
33.027 -18.201 174.76 145 158 183
33.77 -18.213 174.81 146 157 182
34.471 -18.183 174.41 144 154 172
35.24 -18.217 174.69 141 154 181
36.004 -18.244 174.88 141 153 178
36.737 -18.243 174.77 138 148 170
37.431 -18.207 174.3 138 148 169
38.15 -18.195 174.07 136 146 170
38.975 -18.265 174.69 134 148 175
39.705 -18.259 174.5 134 146 165
40.443 -18.259 174.38 133 145 165
41.197 -18.27 174.36 131 144 164
41.967 -18.29 174.44 130 143 160
42.734 -18.308 174.47 129 139 165
43.469 -18.303 174.28 127 139 162
44.24 -18.321 174.31 127 138 163
44.977 -18.317 174.1 127 136 155
45.785 -18.355 174.33 121 137 157
46.505 -18.34 174 122 134 154
47.321 -18.378 174.22 122 132 151
48.032 -18.358 173.83 121 133 154
48.954 -18.452 174.6 121 128 149
49.695 -18.446 174.34 119 132 148
50.559 -18.503 174.72 118 130 144
51.339 -18.515 174.63 116 127 146
52.098 -18.515 174.43 115 124 146
52.929 -18.551 174.56 114 125 142
53.697 -18.555 174.37 112 122 141
54.492 -18.571 174.29 111 120 138
55.283 -18.584 174.19 110 120 136
56.154 -18.632 174.42 108 120 137
57.03 -18.68 174.65 106 116 138
57.825 -18.691 174.5 104 114 129
58.636 -18.709 174.4 105 116 132
59.464 -18.732 174.35 104 114 129
60.464 -18.824 175 103 113 129
61.187 -18.802 174.48 101 113 127
62.151 -18.875 174.91 100 107 126
62.824 -18.834 174.18 100 108 120
63.784 -18.902 174.55 97 106 121
64.689 -18.947 174.67 96 104 120
65.491 -18.952 174.39 96 104 119
66.358 -18.981 174.34 95 103 117
67.376 -19.062 174.79 94 106 120
68.105 -19.04 174.21 90 101 112
69.329 -19.187 175.31 91 101 111
69.981 -19.137 174.43 89 100 111
71.122 -19.251 175.17 89 97 108
72.083 -19.302 175.28 89 94 107
72.952 -19.321 175.07 83 93 98
73.934 -19.375 175.19 75 79 85
74.812 -19.395 174.97 64 67 67
76.871 -19.781 178.3 52 68 86
77.546 -19.732 177.38 14 12 11
77.997 -19.617 175.81 0 0 0
79.064 -19.688 176.04 0 0 0
79.457 -19.558 174.33 0 0 0
79.648 -19.374 172.08 0 0 0
80.423 -19.36 171.49 0 0 0
80.508 -19.152 169.01 0 0 0
80.836 -19.017 167.24 0 0 0
78.987 -18.285 159.79 0 0 0
77.412 -17.646 153.25 0 0 0
-72.704 -24.053 208.62 72 89 152
-70.435 -23.72 206.34 101 103 154
-68.906 -23.572 205.76 108 130 164
-68.281 -23.659 207.36 87 113 159
-67.319 -23.658 208.13 80 95 153
-65.106 -23.319 205.71 92 120 168
-66.605 -23.986 212.77 65 86 153
-63.591 -23.422 208.17 107 130 175
-62.511 -23.385 208.55 115 136 173
-61.385 -23.333 208.78 124 137 170
-60.942 -23.477 210.87 107 110 168
-58.673 -23.093 207.89 132 147 183
-57.906 -23.142 209.04 108 121 169
-56.409 -22.974 208.1 81 99 172
-55.473 -22.972 208.74 137 153 185
-53.333 -22.601 205.78 139 155 188
-44.475 -20.144 182.39 142 160 189
-37.219 -18.123 163.12 140 146 148
-35.355 -17.76 160.04 110 113 107
-34.223 -17.623 159.16 132 127 133
-33.087 -17.48 158.21 244 243 255
-32.371 -17.473 158.58 255 255 255
-31.598 -17.447 158.76 255 255 255
-30.852 -17.429 159.01 158 177 193
-30.374 -17.502 160.18 119 122 116
-29.637 -17.488 160.45 115 118 107
-28.893 -17.471 160.69 114 118 106
-28.546 -17.596 162.37 114 118 108
-27.963 -17.639 163.2 107 111 101
-27.749 -17.822 165.45 101 102 87
-27.347 -17.939 167.03 102 106 84
-27.698 -18.35 171.61 79 82 65
-27.406 -18.523 173.76 102 102 79
-26.73 -18.549 174.42 93 96 80
-27.499 -19.162 181.08 101 104 103
-29.873 -20.459 194.79 130 153 176
-32.994 -22.116 212.25 133 151 172
-32.047 -22.095 212.46 89 90 76
-30.91 -21.99 211.81 84 88 73
-30.273 -22.103 213.41 88 88 77
-29.077 -21.968 212.43 149 160 192
-28.281 -22.012 213.29 152 166 192
-27.214 -21.931 212.85 149 165 202
-26.051 -21.801 211.88 151 162 200
-25.313 -21.874 213.02 148 167 196
-24.436 -21.88 213.47 148 165 198
-23.32 -21.765 212.62 149 161 196
-22.437 -21.766 213 146 160 190
-21.341 -21.654 212.18 149 161 192
-20.503 -21.679 212.78 148 163 192
-19.289 -21.493 211.15 144 163 196
-18.509 -21.549 212.06 146 159 191
-17.56 -21.508 211.95 142 155 188
-16.687 -21.511 212.3 143 160 192
-15.668 -21.424 211.68 144 158 187
-14.588 -21.293 210.59 143 158 187
-12.509 -20.498 202.42 143 157 190
-3.7063 -15.102 145.22 135 148 180
-2.3105 -14.549 139.52 31 40 97
-1.591 -14.448 138.62 8 17 61
-0.95477 -14.403 138.31 6 13 49
-0.40175 -14.419 138.65 6 12 47
0.22944 -14.375 138.34 6 11 48
0.85011 -14.336 138.08 5 13 47
1.406 -14.35 138.38 5 11 47
2.0069 -14.325 138.26 6 11 43
2.6806 -14.232 137.41 6 11 44
3.2083 -14.271 137.97 6 10 44
3.8195 -14.231 137.67 6 11 42
4.4037 -14.215 137.63 5 11 44
5.0042 -14.181 137.38 6 11 44
5.5828 -14.168 137.37 5 12 41
6.1741 -14.14 137.18 6 10 43
6.7481 -14.13 137.19 5 11 40
7.3256 -14.116 137.14 5 11 41
7.8925 -14.115 137.24 6 10 42
8.4828 -14.079 136.95 6 10 42
9.0419 -14.089 137.16 6 10 41
9.5914 -14.119 137.58 6 11 41
10.026 -14.377 140.47 12 16 36
10.191 -15.256 150.12 131 146 168
9.1814 -19.053 191.54 105 103 62
9.244 -20.934 212.13 68 66 38
10.088 -21.008 213.05 66 62 37
10.929 -21.117 214.35 65 63 37
11.795 -21.167 215 63 62 37
12.96 -19.809 200.26 64 63 37
14.384 -16.14 160.28 125 126 88
15.119 -15.524 153.62 99 95 52
15.768 -15.326 151.51 84 80 46
16.393 -15.341 151.72 77 73 41
17.018 -15.285 151.16 68 65 35
17.642 -15.281 151.16 70 66 38
18.267 -15.286 151.24 63 62 34
18.89 -15.269 151.08 62 62 34
19.507 -15.225 150.63 58 55 33
20.134 -15.241 150.82 62 57 35
20.757 -15.238 150.81 61 57 35
21.361 -15.173 150.11 56 54 30
21.987 -15.184 150.24 60 57 30
22.615 -15.195 150.36 57 55 31
23.241 -15.201 150.43 54 54 30
23.865 -15.2 150.4 52 50 28
24.535 -15.282 151.29 49 48 25
25.16 -15.275 151.2 45 45 24
25.833 -15.344 151.94 45 44 23
26.786 -15.816 157.07 55 52 29
28.512 -17.295 173.22 55 54 37
29.38 -17.486 175.28 75 83 78
30.107 -17.483 175.19 116 129 136
30.848 -17.496 175.29 47 45 29
31.561 -17.477 175.02 127 149 162
32.282 -17.466 174.84 151 162 185
33.015 -17.468 174.81 150 158 187
33.744 -17.466 174.71 146 156 179
34.488 -17.477 174.75 141 154 177
35.203 -17.462 174.5 142 155 175
35.962 -17.484 174.66 136 153 173
36.664 -17.458 174.28 139 152 170
37.42 -17.476 174.38 137 151 175
38.203 -17.513 174.67 134 148 170
38.942 -17.515 174.58 133 143 170
39.69 -17.522 174.55 132 144 168
40.435 -17.527 174.48 133 146 164
41.21 -17.551 174.62 133 142 166
41.93 -17.538 174.34 128 142 164
42.722 -17.571 174.55 130 139 165
43.474 -17.576 174.47 129 140 159
44.232 -17.585 174.41 130 138 159
44.997 -17.597 174.38 127 139 156
45.758 -17.607 174.32 129 135 156
46.502 -17.605 174.14 122 137 156
47.287 -17.626 174.19 122 133 154
48.091 -17.655 174.32 122 133 151
48.861 -17.665 174.24 118 131 151
49.687 -17.703 174.45 123 130 146
50.518 -17.741 174.66 118 126 146
51.336 -17.771 174.77 117 130 142
52.049 -17.75 174.33 116 128 144
52.849 -17.77 174.32 113 123 142
53.688 -17.806 174.48 111 122 140
54.459 -17.81 174.29 111 121 136
55.331 -17.858 174.56 110 121 140
56.126 -17.871 174.44 111 119 135
56.916 -17.881 174.29 108 117 133
57.776 -17.919 174.43 108 118 133
58.565 -17.927 174.25 106 119 129
59.502 -17.993 174.67 104 116 131
60.32 -18.01 174.56 104 113 128
61.134 -18.024 174.42 102 111 124
62.111 -18.099 174.91 100 113 128
62.821 -18.073 174.33 98 109 117
63.842 -18.16 174.92 99 107 125
64.625 -18.159 174.59 96 107 120
65.48 -18.183 174.51 97 104 122
66.291 -18.191 174.25 97 103 117
67.292 -18.263 174.65 95 104 113
68.267 -18.323 174.93 94 101 114
69.117 -18.341 174.74 92 98 112
69.961 -18.355 174.52 91 97 110
70.929 -18.409 174.69 90 97 105
71.746 -18.413 174.35 85 92 98
72.842 -18.503 174.88 79 83 88
74.158 -18.657 176.05 71 74 79
75.058 -18.682 175.88 63 67 67
76.513 -18.87 177.37 56 68 91
77.657 -18.962 177.87 16 14 13
77.946 -18.804 175.82 0 0 0
78.681 -18.777 175.1 0 0 0
79.553 -18.789 174.76 0 0 0
79.515 -18.548 171.87 0 0 0
79.465 -18.31 169.01 0 0 0
80.259 -18.305 168.49 0 0 0
80.364 -18.117 166.13 0 0 0
78.616 -17.445 158.97 0 0 0
77.283 -16.897 153.06 0 0 0
-72.506 -23.013 208.3 96 111 161
-70.478 -22.753 206.59 115 136 169
-69.331 -22.707 206.94 122 140 175
-67.713 -22.541 206.1 125 137 172
-67.339 -22.688 208.33 117 129 165
-65.288 -22.405 206.31 119 122 160
-64.909 -22.553 208.53 127 140 176
-63.095 -22.325 207.01 128 142 177
-62.334 -22.373 208.22 121 136 173
-60.77 -22.204 207.26 66 80 142
-59.759 -22.184 207.76 79 126 172
-58.652 -22.135 207.97 127 141 174
-57.522 -22.079 208.09 81 109 168
-55.953 -21.897 206.92 76 107 171
-55.425 -22.01 208.73 55 97 160
-54.03 -21.873 207.99 126 137 168
-46.757 -19.994 189.41 142 157 189
-37.147 -17.364 163.01 171 180 180
-34.714 -16.844 158.14 255 255 255
-33.993 -16.836 158.53 255 255 255
-33.168 -16.796 158.57 255 255 255
-32.4 -16.773 158.77 249 255 255
-31.549 -16.722 158.69 198 218 245
-30.863 -16.724 159.15 128 140 144
-30.566 -16.855 160.94 112 115 107
-29.664 -16.786 160.64 114 119 103
-29.176 -16.856 161.8 110 112 100
-28.541 -16.878 162.44 107 111 90
-28.376 -17.066 164.83 107 110 89
-28.459 -17.349 168.23 112 111 90
-28.456 -17.609 171.4 113 109 86
-27.709 -17.604 171.74 104 106 82
-27.525 -17.809 174.33 99 100 76
-27.569 -18.109 177.94 95 94 75
-28.475 -18.754 185.24 123 136 151
-32.334 -20.587 205.32 132 150 181
-32.804 -21.124 211.53 136 151 180
-31.88 -21.111 211.84 90 90 72
-30.81 -21.037 211.47 85 85 73
-30.107 -21.116 212.75 113 109 104
-29.198 -21.11 213.1 152 163 197
-28.242 -21.082 213.21 150 167 197
-27.313 -21.066 213.44 151 168 198
-26.119 -20.927 212.32 153 165 200
-25.38 -20.997 213.47 151 163 198
-24.219 -20.867 212.43 150 163 198
-23.297 -20.85 212.6 148 164 191
-22.298 -20.793 212.33 149 162 194
-21.46 -20.815 212.94 145 160 188
-20.301 -20.672 211.7 147 159 187
-19.441 -20.682 212.15 143 164 192
-18.648 -20.729 213 147 160 189
-17.64 -20.658 212.54 147 158 191
-16.538 -20.529 211.42 142 157 187
-15.642 -20.517 211.59 144 157 186
-14.761 -20.513 211.85 144 160 185
-12.255 -19.486 200.71 140 155 184
-3.6866 -14.475 145.14 135 150 178
-2.1564 -13.856 138.42 18 27 74
-1.5726 -13.85 138.53 44 33 55
-0.93344 -13.804 138.19 45 33 45
-0.36687 -13.809 138.41 39 29 44
0.23859 -13.785 138.3 36 25 43
0.90918 -13.708 137.6 32 24 43
1.5016 -13.689 137.55 51 41 35
2.0644 -13.695 137.76 50 40 36
2.6249 -13.703 138 50 39 38
3.2064 -13.693 138.02 47 38 35
3.8753 -13.599 137.1 47 38 35
4.4068 -13.634 137.62 64 59 32
5.0019 -13.606 137.44 62 55 31
5.5446 -13.633 137.87 57 55 34
6.1784 -13.558 137.14 51 44 30
6.7477 -13.554 137.22 48 41 35
7.3269 -13.538 137.14 43 37 32
7.9011 -13.526 137.11 62 53 30
8.4744 -13.515 137.09 58 53 32
9.0255 -13.538 137.45 58 51 31
9.6159 -13.499 137.09 59 52 32
10.091 -13.666 139.09 17 19 34
10.241 -14.522 148.92 127 143 165
9.3822 -17.802 186.4 115 120 101
9.1765 -20.21 213.97 71 67 40
10.094 -20.094 212.75 65 64 37
10.949 -20.147 213.46 63 63 37
11.774 -20.334 215.71 62 62 36
12.904 -19.207 202.92 62 62 36
14.387 -15.433 159.87 125 123 91
15.122 -14.826 153 102 97 55
15.763 -14.694 151.54 83 82 44
16.389 -14.675 151.37 75 74 39
17.013 -14.629 150.89 68 65 36
17.636 -14.641 151.06 65 64 36
18.261 -14.648 151.18 62 58 31
18.882 -14.626 150.96 59 57 32
19.504 -14.613 150.84 59 58 31
20.12 -14.581 150.5 59 57 31
20.754 -14.62 150.96 59 57 32
21.347 -14.526 149.9 58 54 34
21.976 -14.547 150.15 58 55 30
22.594 -14.536 150.03 53 53 27
23.23 -14.565 150.37 56 55 32
23.859 -14.574 150.46 54 50 28
24.481 -14.569 150.4 52 49 27
25.129 -14.607 150.81 48 44 25
25.799 -14.67 151.52 48 45 26
26.69 -15.037 155.71 53 49 26
28.319 -16.331 170.5 71 72 45
29.352 -16.734 175.08 67 72 71
30.082 -16.736 175.06 101 110 114
30.799 -16.722 174.85 49 47 25
31.526 -16.719 174.76 111 128 139
32.244 -16.708 174.59 145 160 177
33.017 -16.749 174.99 149 161 182
33.723 -16.726 174.66 145 158 185
34.455 -16.726 174.59 143 154 183
35.193 -16.732 174.57 137 151 175
35.93 -16.735 174.53 138 154 171
36.664 -16.736 174.44 140 149 173
37.451 -16.776 174.8 135 147 171
38.154 -16.751 174.42 137 146 165
38.921 -16.774 174.57 132 147 166
39.66 -16.775 174.47 133 146 166
40.401 -16.777 174.38 128 142 157
41.175 -16.8 174.51 131 143 163
41.931 -16.81 174.5 131 142 166
42.702 -16.828 174.57 131 137 161
43.45 -16.831 174.46 129 139 160
44.203 -16.837 174.37 126 138 161
44.966 -16.848 174.34 124 137 153
45.67 -16.826 173.93 126 134 156
46.461 -16.85 174.04 123 133 153
47.265 -16.88 174.2 124 134 155
48.047 -16.897 174.22 119 136 147
48.795 -16.896 174.02 117 130 150
49.679 -16.961 174.56 122 131 151
50.438 -16.963 174.38 119 128 147
51.215 -16.974 174.29 117 129 146
52.081 -17.023 174.64 115 125 145
52.723 -16.972 173.84 114 124 147
53.674 -17.056 174.56 115 126 142
54.432 -17.054 174.31 110 122 139
55.228 -17.068 174.23 113 119 132
56.008 -17.075 174.06 106 119 134
56.796 -17.084 173.91 107 117 135
57.74 -17.154 174.43 104 114 130
58.57 -17.177 174.41 102 115 131
59.41 -17.203 174.43 102 116 125
60.34 -17.261 174.78 104 112 127
61.053 -17.238 174.24 103 108 126
61.97 -17.288 174.5 100 111 124
62.775 -17.297 174.29 102 110 124
63.551 -17.296 173.97 96 108 119
64.561 -17.373 174.5 97 107 119
65.4 -17.391 174.36 96 102 121
66.29 -17.424 174.39 96 104 114
67.241 -17.477 174.62 95 104 114
68.2 -17.529 174.84 91 102 112
69.031 -17.54 174.59 90 99 110
69.984 -17.588 174.75 91 96 107
71.066 -17.673 175.29 87 95 106
71.824 -17.658 174.74 81 88 96
72.966 -17.757 175.41 73 77 82
73.73 -17.743 174.86 65 70 71
74.798 -17.816 175.23 63 67 64
76.165 -17.971 176.47 57 69 88
77.162 -18.019 176.55 19 23 19
77.887 -17.99 175.8 0 0 0
78.231 -17.858 173.95 0 0 0
78.602 -17.736 172.21 0 0 0
79.313 -17.708 171.46 0 0 0
79.382 -17.512 168.93 0 0 0
79.928 -17.443 167.75 0 0 0
79.244 -17.063 163.3 0 0 0
78.192 -16.6 157.99 0 0 0
77.199 -16.162 152.98 0 0 0
-71.458 -21.779 205.97 106 125 167
-70.421 -21.762 206.6 112 133 165
-69.6 -21.795 207.74 89 126 169
-68.101 -21.665 207.2 124 141 171
-67.065 -21.646 207.78 120 139 170
-66.044 -21.629 208.38 116 137 171
-64.94 -21.591 208.75 118 139 177
-63.295 -21.416 207.67 117 139 176
-61.866 -21.291 207.11 125 144 179
-61.282 -21.382 208.78 93 137 175
-59.628 -21.195 207.53 102 116 166
-58.543 -21.155 207.8 93 104 163
-57.748 -21.191 208.87 76 117 171
-56.632 -21.14 209.01 110 135 176
-55.139 -20.985 208.02 123 147 186
-54.153 -20.967 208.49 129 148 187
-47.865 -19.451 192.88 139 156 189
-36.239 -16.369 160.31 162 172 201
-34.807 -16.158 158.53 175 192 211
-33.898 -16.096 158.32 171 186 217
-33.074 -16.057 158.36 170 187 202
-32.238 -16.014 158.34 154 161 169
-31.526 -16.007 158.71 132 137 138
-31.118 -16.095 160.1 113 114 100
-30.487 -16.115 160.75 112 112 93
-29.862 -16.138 161.43 115 117 95
-29.14 -16.13 161.76 120 115 95
-29.127 -16.355 164.67 125 126 96
-29.168 -16.607 167.86 126 124 95
-28.417 -16.596 168.16 119 115 89
-27.982 -16.694 169.66 116 120 87
-27.698 -16.849 171.79 104 105 83
-27.37 -16.994 173.81 97 97 78
-27.587 -17.342 178.1 92 93 78
-29.486 -18.324 189.53 131 148 178
-34.018 -20.333 212.55 134 152 182
-32.721 -20.18 211.28 134 153 177
-31.825 -20.177 211.7 86 89 70
-30.968 -20.191 212.29 87 87 74
-30.098 -20.2 212.81 147 159 180
-29.239 -20.214 213.39 150 169 192
-28.066 -20.096 212.46 151 166 200
-27.039 -20.037 212.19 152 164 203
-26.251 -20.08 213.08 150 164 197
-25.26 -20.034 212.94 145 162 193
-24.401 -20.047 213.47 151 165 191
-23.329 -19.961 212.86 145 167 192
-22.314 -19.899 212.51 145 163 191
-21.444 -19.905 212.94 147 160 193
-20.442 -19.846 212.6 145 159 197
-19.54 -19.836 212.82 145 160 191
-18.514 -19.76 212.27 147 157 189
-17.654 -19.77 212.71 147 159 193
-16.575 -19.659 211.74 142 158 187
-15.648 -19.629 211.71 143 157 184
-14.715 -19.595 211.61 142 158 182
-11.203 -18.012 193.42 143 156 188
-3.3436 -13.65 142.71 132 146 172
-2.2011 -13.3 138.8 126 112 49
-1.5853 -13.274 138.67 105 93 29
-0.93842 -13.225 138.27 93 79 26
-0.28531 -13.168 137.78 93 81 28
0.23361 -13.206 138.39 93 82 26
0.93111 -13.112 137.44 91 82 28
1.4675 -13.137 137.9 92 79 27
2.0095 -13.16 138.31 95 80 28
2.6798 -13.077 137.48 95 79 26
3.2589 -13.067 137.51 92 82 26
3.8318 -13.062 137.59 93 82 28
4.4229 -13.04 137.47 93 81 27
5.0271 -13.004 137.16 89 80 26
5.5779 -13.02 137.48 90 80 26
6.203 -12.955 136.84 89 77 27
6.7449 -12.982 137.27 87 75 26
7.3645 -12.915 136.59 83 74 26
7.9438 -12.895 136.45 83 71 26
8.5569 -12.824 135.71 80 70 25
9.1203 -12.818 135.74 77 68 24
9.6295 -12.9 136.82 75 72 23
10.086 -13.09 139.17 69 61 27
10.294 -13.793 147.67 121 143 163
9.6289 -16.496 180.08 123 140 157
9.2189 -19.213 212.69 68 66 36
10.053 -19.31 213.96 66 68 39
10.919 -19.34 214.43 65 64 35
11.777 -19.41 215.37 63 60 35
12.85 -18.577 205.49 62 61 37
14.362 -14.882 161.27 122 121 85
15.108 -14.257 153.83 96 91 55
15.755 -14.106 152.07 87 83 48
16.384 -14.052 151.48 74 69 41
17.008 -14.04 151.39 68 65 35
17.629 -13.982 150.73 67 60 35
18.253 -13.993 150.91 62 58 35
18.876 -13.995 150.96 60 58 29
19.497 -13.982 150.83 59 56 32
20.113 -13.951 150.49 57 56 30
20.734 -13.948 150.48 58 55 34
21.349 -13.926 150.22 59 56 33
21.969 -13.921 150.17 61 57 32
22.585 -13.906 150 59 57 31
23.226 -13.946 150.48 54 54 28
23.851 -13.946 150.49 53 51 28
24.483 -13.959 150.63 50 53 29
25.121 -13.977 150.84 50 47 30
25.825 -14.087 152.15 46 46 26
26.589 -14.263 154.25 44 44 26
28.14 -15.407 167.98 71 69 48
29.348 -16.012 175.21 66 71 62
30.068 -16 175.04 78 87 85
30.786 -15.99 174.86 47 46 27
31.529 -16.004 174.98 69 77 81
32.259 -16.003 174.92 138 150 176
32.992 -16.005 174.88 145 157 182
33.714 -15.998 174.73 144 156 172
34.452 -16.003 174.72 143 151 179
35.178 -15.998 174.58 142 152 175
35.927 -16.011 174.65 139 153 174
36.642 -15.996 174.4 140 149 171
37.376 -15.997 174.31 137 148 169
38.168 -16.038 174.7 135 146 172
38.889 -16.026 174.46 134 146 168
39.639 -16.035 174.45 133 143 168
40.394 -16.047 174.47 133 144 161
41.136 -16.049 174.38 130 144 163
41.871 -16.046 174.21 131 141 164
42.687 -16.09 174.61 128 138 162
43.447 -16.1 174.58 130 138 155
44.164 -16.085 174.26 129 139 157
44.95 -16.108 174.38 127 137 157
45.701 -16.111 174.26 122 137 154
46.522 -16.149 174.55 124 135 156
47.208 -16.118 174.01 122 134 152
48.035 -16.156 174.29 123 132 151
48.783 -16.155 174.09 120 132 148
49.661 -16.214 174.6 119 130 146
50.409 -16.211 174.37 118 129 145
51.214 -16.233 174.42 118 128 148
51.981 -16.238 174.27 119 125 141
52.745 -16.24 174.09 113 126 147
53.588 -16.276 174.28 115 124 139
54.406 -16.299 174.32 111 124 136
55.208 -16.314 174.27 112 122 137
55.987 -16.32 174.1 106 118 132
56.801 -16.339 174.07 109 117 132
57.692 -16.386 174.35 104 119 131
58.446 -16.38 174.03 106 117 131
59.298 -16.409 174.1 104 114 131
60.148 -16.437 174.14 103 112 125
61.095 -16.497 174.55 102 113 124
61.925 -16.514 174.46 100 111 127
62.61 -16.483 173.79 100 107 122
63.566 -16.541 174.16 99 108 121
64.514 -16.594 174.46 94 108 124
65.493 -16.656 174.84 96 106 113
66.185 -16.625 174.16 93 103 114
67.297 -16.724 174.95 93 100 113
68.19 -16.754 174.95 91 99 110
69.072 -16.779 174.88 91 100 111
70.086 -16.842 175.23 88 95 100
71.03 -16.883 175.31 83 88 95
71.805 -16.873 174.83 76 83 85
72.715 -16.902 174.76 67 73 73
73.992 -17.031 175.82 66 69 70
74.687 -16.998 175.03 64 66 62
76.295 -17.211 177.01 52 56 71
77.294 -17.256 177.09 24 20 20
77.771 -17.162 175.6 0 0 0
78.386 -17.107 174.54 0 0 0
78.839 -17.011 173.03 0 0 0
79.092 -16.867 170.98 0 0 0
79.617 -16.794 169.71 0 0 0
80.207 -16.738 168.64 0 0 0
79.81 -16.445 164.94 0 0 0
78.3 -15.892 158.41 0 0 0
77.062 -15.416 152.75 0 0 0
-72.518 -21.037 208.61 115 130 164
-70.74 -20.856 207.5 122 139 173
-69.668 -20.832 208.04 79 99 152
-68.09 -20.69 207.31 126 141 175
-66.957 -20.648 207.64 126 142 174
-65.85 -20.612 208.01 127 146 179
-65.314 -20.71 209.85 75 82 144
-63.685 -20.548 208.82 83 111 164
-62.158 -20.406 208.01 125 145 171
-61.313 -20.43 208.99 118 127 167
-59.538 -20.221 207.41 130 148 179
-58.455 -20.182 207.67 133 149 183
-57.475 -20.169 208.21 70 93 161
-56.197 -20.078 207.88 136 151 182
-54.911 -19.982 207.48 136 156 187
-53.938 -19.967 207.97 139 152 190
-49.076 -18.907 196.66 103 118 175
-36.978 -15.846 162.68 116 129 140
-35.056 -15.513 159.39 118 127 114
-33.723 -15.336 157.85 112 112 101
-33.008 -15.329 158.23 116 120 105
-32.242 -15.307 158.43 118 121 107
-31.641 -15.333 159.18 124 120 96
-31.332 -15.447 160.91 131 131 98
-30.722 -15.473 161.65 138 133 98
-30.5 -15.618 163.76 141 139 108
-29.888 -15.647 164.52 146 137 111
-29.595 -15.777 166.46 137 137 102
-29.111 -15.851 167.73 131 126 101
-28.224 -15.796 167.51 121 117 91
-27.635 -15.838 168.4 110 108 85
-27.019 -15.873 169.21 99 100 80
-27.41 -16.251 174.05 74 78 67
-27.925 -16.685 179.56 92 93 77
-31.482 -18.206 197.92 122 148 171
-34.077 -19.436 212.9 135 153 184
-32.839 -19.312 211.88 133 152 183
-31.712 -19.224 211.29 83 86 68
-31.012 -19.295 212.58 85 84 77
-29.87 -19.199 211.86 153 163 197
-28.887 -19.161 211.83 152 167 197
-28.004 -19.163 212.26 150 167 198
-27.246 -19.215 213.29 150 163 201
-26.163 -19.135 212.73 149 163 199
-25.174 -19.091 212.59 149 163 198
-24.218 -19.06 212.6 151 163 197
-23.221 -19.01 212.36 148 160 195
-22.139 -18.919 211.63 149 160 193
-21.258 -18.918 211.97 147 159 190
-20.312 -18.885 211.93 144 158 189
-19.462 -18.899 212.44 147 158 187
-18.525 -18.869 212.41 142 158 190
-17.436 -18.761 211.42 139 155 184
-16.508 -18.732 211.39 144 155 186
-15.64 -18.735 211.73 135 143 175
-14.609 -18.647 210.96 138 153 186
-10.596 -16.852 189.23 136 152 181
-3.3447 -13.049 142.76 135 145 174
-2.1864 -12.705 138.73 132 116 46
-1.5135 -12.644 138.16 107 94 32
-0.8541 -12.588 137.64 98 87 24
-0.22916 -12.551 137.36 73 63 20
0.27723 -12.593 138.05 76 65 21
0.84193 -12.597 138.27 100 87 28
1.5109 -12.525 137.53 100 87 24
2.0917 -12.515 137.56 100 87 27
2.6897 -12.491 137.41 101 88 24
3.2682 -12.482 137.44 101 85 24
3.8598 -12.461 137.32 100 87 30
4.4547 -12.435 137.13 102 86 28
5.0748 -12.383 136.62 98 85 26
5.6421 -12.379 136.69 99 85 27
6.2229 -12.361 136.59 93 80 27
6.8086 -12.335 136.39 92 82 25
7.4122 -12.287 135.9 89 80 23
8.0054 -12.245 135.49 89 78 26
8.6019 -12.194 134.95 87 75 25
9.1303 -12.234 135.55 86 75 24
9.6709 -12.262 136 85 77 27
10.112 -12.461 138.6 72 64 26
10.288 -13.185 147.78 128 142 163
9.7882 -15.421 175.98 126 139 162
9.1712 -18.431 213.95 69 67 40
10.014 -18.513 215.11 68 66 37
10.913 -18.456 214.51 67 63 38
11.759 -18.565 215.99 63 62 36
12.82 -17.829 206.81 63 61 36
14.323 -14.392 163.56 114 115 81
15.093 -13.697 154.87 100 95 54
15.745 -13.528 152.79 82 80 44
16.379 -13.422 151.51 74 74 41
17.003 -13.404 151.33 68 65 36
17.626 -13.39 151.21 65 61 34
18.25 -13.389 151.23 62 59 33
18.867 -13.348 150.75 61 59 32
19.492 -13.359 150.92 58 55 29
20.11 -13.337 150.67 61 61 33
20.736 -13.348 150.83 58 57 30
21.357 -13.34 150.75 57 52 29
21.962 -13.295 150.2 59 58 33
22.593 -13.314 150.44 58 55 33
23.214 -13.309 150.39 55 53 28
23.835 -13.305 150.33 52 48 25
24.445 -13.281 150.03 50 46 29
25.122 -13.362 151.04 49 48 27
25.74 -13.348 150.86 52 51 31
26.582 -13.622 154.31 51 46 26
28.009 -14.562 166.17 68 68 43
29.322 -15.263 175 67 71 62
30.031 -15.243 174.72 73 79 73
30.783 -15.268 174.99 51 49 28
31.506 -15.262 174.87 61 63 51
32.237 -15.264 174.84 129 144 158
32.962 -15.258 174.71 141 154 178
33.663 -15.234 174.35 143 154 171
34.41 -15.248 174.45 142 155 169
35.169 -15.269 174.65 140 151 169
35.905 -15.272 174.6 141 150 172
36.632 -15.267 174.46 138 146 163
37.373 -15.273 174.44 135 147 169
38.067 -15.245 173.99 136 147 170
38.893 -15.305 174.64 135 146 166
39.614 -15.294 174.4 132 145 164
40.361 -15.3 174.36 134 147 164
41.102 -15.302 174.26 130 144 163
41.848 -15.306 174.19 132 143 167
42.625 -15.326 174.32 126 138 162
43.406 -15.347 174.44 128 140 162
44.126 -15.335 174.15 126 140 155
44.897 -15.35 174.18 124 137 154
45.628 -15.343 173.94 121 137 155
46.447 -15.379 174.23 123 134 156
47.246 -15.403 174.37 123 133 154
48.003 -15.406 174.24 121 133 148
48.824 -15.438 174.45 121 131 146
49.541 -15.423 174.08 118 131 147
50.286 -15.42 173.85 119 128 152
51.184 -15.48 174.41 115 128 143
51.882 -15.457 173.9 113 126 146
52.744 -15.499 174.22 117 125 136
53.485 -15.492 173.91 116 123 134
54.423 -15.561 174.54 113 121 140
55.188 -15.561 174.31 112 121 136
55.922 -15.55 173.94 110 120 137
56.775 -15.582 174.08 107 118 135
57.591 -15.6 174.05 105 118 130
58.453 -15.632 174.19 107 116 130
59.325 -15.667 174.34 106 115 130
60.09 -15.664 174.04 103 114 127
61.123 -15.749 174.79 99 113 125
61.866 -15.737 174.36 100 110 122
62.811 -15.79 174.7 99 109 123
63.52 -15.767 174.12 99 106 119
64.56 -15.846 174.76 96 107 116
65.493 -15.889 174.97 97 105 114
66.201 -15.864 174.34 94 103 111
67.199 -15.925 174.74 93 102 110
68.108 -15.958 174.79 89 98 109
69.089 -16.01 175.07 89 94 105
69.907 -16.015 174.76 85 93 99
70.909 -16.07 175.05 80 85 95
71.849 -16.106 175.1 72 78 80
72.822 -16.149 175.24 67 73 72
73.575 -16.134 174.65 67 72 68
74.825 -16.247 175.6 66 67 64
76.024 -16.344 176.33 58 66 84
76.868 -16.348 175.96 29 32 24
77.714 -16.352 175.57 0 0 0
77.997 -16.218 173.56 0 0 0
78.573 -16.157 172.41 0 0 0
79.615 -16.21 172.57 0 0 0
79.537 -15.996 169.63 0 0 0
79.425 -15.779 166.65 0 0 0
79.31 -15.567 163.74 0 0 0
78.038 -15.097 157.84 0 0 0
77.269 -14.751 153.41 0 0 0
-71.116 -19.752 205.41 121 135 170
-70.651 -19.857 207.41 121 136 171
-69.625 -19.843 208.06 82 103 142
-67.383 -19.563 205.68 101 112 158
-66.849 -19.654 207.49 98 108 158
-65.69 -19.607 207.73 83 109 165
-64.154 -19.474 206.96 79 106 164
-62.635 -19.342 206.18 128 142 175
-62.171 -19.45 208.16 127 143 178
-60.742 -19.335 207.56 101 127 171
-60.046 -19.391 208.92 110 134 176
-58.388 -19.217 207.6 93 111 168
-57.458 -19.216 208.28 77 87 151
-55.938 -19.07 207.24 50 72 154
-55.507 -19.191 209.34 139 152 182
-53.687 -18.965 207.33 139 155 186
-50.046 -18.268 199.7 139 158 187
-38.618 -15.537 167.81 145 159 191
-36.156 -15.085 162.92 131 130 105
-34.263 -14.771 159.65 139 133 97
-33.514 -14.757 159.94 141 140 103
-32.697 -14.724 160.01 143 140 106
-32.814 -14.949 163.18 147 147 108
-32.117 -14.953 163.67 148 146 115
-31.495 -14.977 164.41 149 145 110
-30.993 -15.037 165.58 146 146 110
-30.172 -15.005 165.62 139 136 111
-29.395 -14.985 165.81 127 127 95
-28.567 -14.95 165.79 110 108 88
-27.803 -14.933 165.99 98 100 79
-27.445 -15.043 167.75 98 97 78
-27.208 -15.194 170.03 97 98 80
-27.387 -15.486 174.03 98 96 83
-28.779 -16.187 183.12 128 148 169
-34.101 -18.226 208.9 93 104 132
-34.062 -18.513 212.93 100 109 122
-32.998 -18.454 212.66 134 153 180
-31.979 -18.41 212.56 85 85 69
-30.812 -18.311 211.76 91 89 83
-30.178 -18.404 213.36 148 164 197
-28.886 -18.255 211.91 150 166 200
-28.046 -18.272 212.54 152 166 198
-27.163 -18.273 212.97 149 162 197
-26.14 -18.22 212.69 147 164 198
-25.203 -18.199 212.82 149 163 194
-24.079 -18.1 211.95 122 155 188
-23.308 -18.146 212.91 144 159 191
-22.219 -18.057 212.15 142 160 192
-21.445 -18.103 213.1 141 159 193
-20.384 -18.022 212.42 143 157 190
-19.345 -17.948 211.81 144 158 188
-18.569 -17.995 212.75 145 156 190
-17.493 -17.899 211.85 143 159 181
-16.532 -17.855 211.61 142 157 187
-15.483 -17.764 210.75 143 156 189
-14.602 -17.758 210.98 145 154 184
-10.199 -15.842 186.5 138 152 179
-3.1782 -12.353 141.6 133 146 175
-2.16 -12.105 138.57 132 119 47
-1.4572 -12.028 137.76 110 94 31
-0.85202 -12.007 137.66 76 64 20
-0.34272 -12.044 138.33 73 62 18
0.33461 -11.975 137.59 77 66 19
0.90048 -11.977 137.78 88 76 24
1.5121 -11.947 137.55 101 88 29
2.1052 -11.928 137.46 107 89 27
2.6845 -11.919 137.49 104 91 31
3.3119 -11.871 137.01 104 88 28
3.8326 -11.907 137.63 106 89 26
4.4548 -11.86 137.15 106 89 28
5.022 -11.858 137.26 106 89 30
5.6155 -11.831 137.04 103 89 30
6.2201 -11.791 136.64 99 86 27
6.8057 -11.767 136.44 99 84 27
7.3606 -11.775 136.66 96 83 25
8.0233 -11.656 135.21 97 84 28
8.6201 -11.605 134.64 90 82 28
9.1653 -11.618 134.91 89 79 26
9.6398 -11.737 136.59 84 77 25
10.133 -11.847 138.14 83 75 23
10.292 -12.558 147.65 127 142 160
9.6381 -14.972 179.73 126 143 163
9.1694 -17.541 213.91 66 66 39
10.049 -17.529 213.88 66 68 38
10.923 -17.529 213.99 64 63 35
11.73 -17.747 217.01 65 62 36
12.787 -17.082 208.28 65 62 36
14.289 -13.857 165.5 83 84 94
15.088 -13.054 154.89 104 99 56
15.742 -12.882 152.66 86 83 46
16.374 -12.788 151.47 74 72 39
16.998 -12.786 151.5 66 64 36
17.62 -12.749 151.05 67 66 35
18.242 -12.743 151.01 64 62 35
18.86 -12.713 150.65 63 62 34
19.487 -12.734 150.97 60 58 32
20.104 -12.711 150.69 60 60 32
20.734 -12.734 151.03 59 57 30
21.339 -12.684 150.39 57 54 34
21.966 -12.695 150.55 58 60 30
22.577 -12.67 150.23 59 57 31
23.201 -12.672 150.26 57 56 33
23.837 -12.694 150.56 59 57 30
24.443 -12.665 150.18 51 52 28
25.107 -12.722 150.92 50 49 27
25.75 -12.742 151.18 48 46 27
26.495 -12.883 153.05 46 43 29
27.805 -13.649 163.25 65 65 41
29.316 -14.54 175.1 62 66 57
30.056 -14.551 175.22 65 66 62
30.775 -14.541 175.05 49 47 30
31.488 -14.527 174.81 56 53 33
32.221 -14.53 174.81 121 130 144
32.948 -14.527 174.71 133 145 168
33.672 -14.522 174.59 140 150 178
34.443 -14.553 174.93 142 152 177
35.12 -14.512 174.32 140 152 172
35.88 -14.532 174.51 140 152 169
36.59 -14.517 174.23 139 149 170
37.299 -14.501 173.94 136 148 166
38.079 -14.531 174.23 136 150 164
38.851 -14.553 174.44 133 148 167
39.578 -14.548 174.26 133 146 166
40.328 -14.555 174.25 131 143 157
41.088 -14.568 174.3 130 145 161
41.834 -14.571 174.22 128 138 160
42.589 -14.579 174.21 130 142 158
43.369 -14.599 174.33 128 139 154
44.188 -14.636 174.69 127 138 153
44.919 -14.63 174.45 127 139 155
45.641 -14.618 174.16 125 137 156
46.515 -14.677 174.77 125 137 151
47.17 -14.635 174.05 123 133 152
47.945 -14.646 174.04 123 134 151
48.728 -14.661 174.05 119 133 149
49.551 -14.691 174.26 118 132 144
50.269 -14.676 173.89 120 131 144
51.093 -14.705 174.06 120 129 149
51.951 -14.744 174.38 117 126 148
52.708 -14.744 174.17 116 130 142
53.581 -14.786 174.5 114 123 137
54.318 -14.777 174.17 114 123 142
55.157 -14.804 174.29 113 123 137
55.967 -14.82 174.27 109 119 134
56.755 -14.828 174.12 111 118 135
57.618 -14.86 174.29 110 117 129
58.432 -14.875 174.22 107 117 128
59.249 -14.889 174.15 103 114 128
60.126 -14.922 174.31 104 113 128
61.08 -14.978 174.75 104 111 127
61.859 -14.978 174.46 101 111 118
62.699 -14.996 174.4 100 110 118
63.49 -14.998 174.13 100 109 120
64.476 -15.057 174.57 97 108 115
65.226 -15.046 174.12 97 104 116
66.265 -15.117 174.7 95 104 112
67.151 -15.143 174.7 93 101 111
67.993 -15.156 174.52 88 96 109
68.855 -15.173 174.4 86 96 98
69.72 -15.191 174.26 80 87 93
70.884 -15.285 175.09 78 82 85
71.885 -15.335 175.35 70 78 76
72.778 -15.355 175.23 68 73 74
73.658 -15.372 175.04 66 72 69
74.422 -15.359 174.48 63 68 64
75.979 -15.539 176.32 57 55 75
76.831 -15.544 175.98 35 42 30
77.715 -15.557 175.71 0 0 0
78.407 -15.524 174.87 0 0 0
78.1 -15.263 171.19 0 0 0
78.885 -15.255 170.66 0 0 0
79.762 -15.268 170.38 0 0 0
79.273 -14.979 166.37 0 0 0
79.386 -14.828 164.06 0 0 0
78.052 -14.368 158 0 0 0
77.005 -13.981 152.84 0 0 0
-72.017 -18.958 207.66 120 134 167
-70.939 -18.936 208.22 117 138 168
-69.662 -18.872 208.26 122 137 167
-67.697 -18.664 206.57 123 138 172
-66.864 -18.688 207.64 126 142 176
-65.586 -18.618 207.57 124 145 176
-64.542 -18.597 208.08 81 113 164
-63.049 -18.478 207.38 130 146 174
-62.807 -18.63 209.98 130 146 178
-60.224 -18.267 206.26 128 145 181
-60.928 -18.632 211.46 128 147 182
-58.571 -18.311 208.22 97 118 169
-58.041 -18.402 210.04 110 137 178
-56.233 -18.198 208.2 88 86 151
-55.262 -18.186 208.72 90 86 151
-53.917 -18.084 208.12 140 154 186
-51.694 -17.767 204.8 141 157 191
-48.09 -17.104 197.08 144 158 192
-42.631 -15.961 183.28 148 161 189
-39.388 -15.346 176.04 146 158 191
-35.98 -14.671 168 144 160 176
-34.2 -14.399 165.03 137 137 101
-33.297 -14.35 164.87 145 141 105
-32.324 -14.281 164.45 148 145 111
-31.418 -14.228 164.22 141 138 105
-30.535 -14.18 164.04 127 128 97
-29.706 -14.145 164.02 113 117 92
-28.992 -14.142 164.41 107 105 86
-28.255 -14.133 164.7 101 96 81
-27.619 -14.152 165.37 95 95 81
-27.421 -14.303 167.73 100 100 88
-27.148 -14.435 169.86 101 98 87
-27.724 -14.832 175.46 73 75 65
-29.45 -15.601 185.94 133 154 175
-34.48 -17.444 210.56 133 152 176
-33.633 -17.456 211.19 128 146 170
-32.703 -17.442 211.47 94 94 80
-31.736 -17.416 211.57 82 86 69
-31.049 -17.484 212.91 110 102 98
-30.152 -17.482 213.32 148 166 196
-28.892 -17.351 212.02 150 165 193
-28.131 -17.395 213.03 149 165 196
-27.009 -17.309 212.29 156 166 195
-26.164 -17.323 212.89 149 166 194
-25.158 -17.277 212.66 94 131 181
-24.197 -17.246 212.64 145 163 194
-23.298 -17.24 212.93 84 97 165
-22.295 -17.19 212.63 141 156 188
-21.188 -17.095 211.72 145 159 193
-20.43 -17.145 212.75 143 157 187
-19.495 -17.12 212.76 143 154 190
-18.345 -16.998 211.45 125 149 184
-17.462 -16.993 211.72 106 124 181
-16.484 -16.943 211.36 141 152 179
-15.574 -16.924 211.41 139 154 183
-14.536 -16.84 210.58 144 156 179
-10.164 -15.04 186.3 140 153 184
-3.0937 -11.712 141.03 131 148 168
-2.0623 -11.468 137.88 132 115 42
-1.3434 -11.384 136.92 96 83 25
-0.86878 -11.437 137.83 85 72 22
-0.36632 -11.477 138.55 85 69 20
0.29423 -11.422 137.97 90 76 22
0.92862 -11.38 137.56 106 89 28
1.5326 -11.356 137.39 105 91 27
2.0966 -11.357 137.57 104 92 29
2.691 -11.338 137.45 107 92 30
3.3266 -11.286 136.88 110 94 28
3.9236 -11.26 136.67 107 92 28
4.4547 -11.286 137.17 108 93 29
5.0945 -11.221 136.41 109 93 28
5.6437 -11.232 136.7 105 91 28
6.2421 -11.198 136.35 102 92 27
6.7898 -11.212 136.66 102 87 29
7.3819 -11.181 136.35 100 86 29
8.0278 -11.085 135.13 97 86 27
8.6241 -11.037 134.57 97 85 26
9.1387 -11.087 135.38 91 80 26
9.6656 -11.129 136.06 89 75 25
10.132 -11.269 138.12 85 73 25
10.28 -11.959 147.88 124 143 167
9.4854 -14.497 183.54 122 133 156
9.1677 -16.652 213.86 65 66 37
10.055 -16.621 213.56 66 65 39
10.897 -16.699 214.78 63 65 38
11.745 -16.792 216.19 64 58 38
12.743 -16.367 210.34 63 62 35
14.229 -13.433 169.19 79 82 79
15.076 -12.463 155.63 113 108 64
15.735 -12.268 152.95 86 83 43
16.369 -12.166 151.58 73 72 39
16.993 -12.149 151.4 66 66 35
17.615 -12.122 151.07 62 61 35
18.242 -12.154 151.57 64 62 31
18.856 -12.098 150.82 59 61 34
19.48 -12.103 150.93 62 60 33
20.1 -12.093 150.83 59 56 35
20.725 -12.099 150.93 57 56 32
21.349 -12.098 150.94 57 54 29
21.96 -12.07 150.57 56 55 32
22.575 -12.054 150.37 57 55 29
23.203 -12.064 150.52 55 56 31
23.829 -12.066 150.55 58 55 33
24.466 -12.085 150.82 52 53 24
25.096 -12.089 150.88 53 52 28
25.736 -12.106 151.11 51 48 26
26.496 -12.256 153.22 46 45 26
27.612 -12.772 160.48 63 61 39
29.24 -13.745 174.17 57 59 50
30.037 -13.814 175.13 60 62 53
30.751 -13.8 174.9 52 50 29
31.48 -13.801 174.87 53 51 31
32.214 -13.804 174.87 114 124 133
32.934 -13.797 174.71 126 136 151
