13.93 -61.133 202.78 50 42 28
14.794 -61.78 205.04 39 41 43
15.685 -61.973 205.74 47 52 57
16.583 -62.24 206.68 26 39 64
17.483 -62.011 205.91 69 78 93
18.384 -62.082 206.17 73 80 98
19.278 -61.896 205.53 74 83 95
20.182 -62.002 205.89 73 80 92
21.091 -62.124 206.3 73 79 92
22.009 -62.314 206.94 73 80 94
22.917 -62.348 207.03 71 78 90
23.823 -62.341 206.97 71 80 89
24.739 -62.426 207.22 69 77 94
25.633 -62.329 206.85 69 79 90
26.599 -62.706 208.09 67 77 90
27.459 -62.404 206.99 67 76 88
28.434 -62.758 208.13 65 75 89
29.338 -62.715 207.91 66 74 85
30.269 -62.797 208.11 65 75 86
31.169 -62.73 207.79 65 74 87
32.132 -62.931 208.38 64 75 86
33.019 -62.816 207.88 63 73 83
34.002 -63.06 208.6 64 69 84
34.93 -63.088 208.58 64 71 81
35.979 -63.508 209.88 62 69 85
36.742 -62.999 208.01 61 69 79
37.873 -63.629 210.01 61 68 82
38.807 -63.645 209.91 60 65 77
39.773 -63.744 210.09 56 66 75
40.594 -63.455 208.94 57 65 72
41.437 -63.241 208.04 59 63 74
42.526 -63.643 209.22 58 64 75
43.55 -63.863 209.78 55 63 70
44.619 -64.168 210.61 47 50 63
45.655 -64.382 211.13 54 61 69
46.629 -64.447 211.13 54 58 72
47.491 -64.281 210.34 53 58 69
48.575 -64.565 211.07 51 57 68
50.02 -65.533 214.09 51 56 69
50.483 -64.594 210.68 53 59 70
51.577 -64.865 211.33 50 57 67
52.522 -64.853 211.02 51 57 67
53.607 -65.084 211.52 49 57 66
54.625 -65.192 211.6 47 57 66
55.567 -65.166 211.22 50 55 61
56.462 -65.066 210.58 47 56 64
58.131 -66.189 214.02 49 55 62
58.752 -65.648 211.89 47 54 63
59.541 -65.383 210.68 46 53 60
61.093 -66.251 213.23 47 52 60
62.16 -66.383 213.32 44 51 61
63.083 -66.306 212.71 44 51 61
64.662 -67.137 215.09 43 50 59
64.874 -66.088 211.24 44 48 56
66.351 -66.753 213.05 43 48 58
67.285 -66.688 212.45 43 49 55
69.138 -67.795 215.68 42 48 58
69.873 -67.463 214.17 42 47 57
70.901 -67.502 213.87 37 41 53
72.394 -68.1 215.39 37 45 55
73.472 -68.183 215.21 41 49 55
74.422 -68.116 214.54 40 45 54
76.067 -68.844 216.44 40 47 54
76.365 -68.034 213.34 40 45 57
78.349 -69.112 216.34 39 46 53
78.502 -68.167 212.8 38 46 53
79.802 -68.476 213.29 41 45 53
81.581 -69.278 215.36 39 42 55
83.123 -69.811 216.54 38 45 55
84.533 -70.192 217.23 38 43 51
85.77 -70.386 217.3 38 44 50
86.678 -70.249 216.31 37 42 52
88.859 -71.357 219.26 36 45 50
90.411 -71.826 220.17 36 41 51
91.554 -71.896 219.81 35 41 50
92.462 -71.743 218.73 36 42 49
93.988 -72.163 219.45 36 42 48
94.538 -71.684 217.35 34 41 47
97.455 -73.337 221.89 37 41 49
97.999 -72.849 219.75 0 0 0
99.246 -72.986 219.55 0 0 0
100.79 -73.371 220.11 0 0 0
101.69 -73.206 218.96 0 0 0
103.48 -73.788 220.11 0 0 0
103.34 -72.751 216.28 0 0 0
106.38 -74.346 220.52 0 0 0
108.04 -74.787 221.21 0 0 0
109.53 -75.071 221.42 0 0 0
110.73 -75.128 220.94 0 0 0
-70.534 -66.162 189.26 0 0 0
-69.527 -66.136 189.86 0 0 0
-68.255 -65.908 189.85 0 0 0
-65.61 -64.617 186.67 0 0 0
-64.935 -64.829 187.97 0 0 0
-63.811 -64.692 188.23 0 0 0
-61.244 -63.4 184.99 0 0 0
-63.151 -65.685 192.57 70 82 121
-62.355 -65.82 193.65 91 101 128
-59.809 -64.512 190.33 92 101 128
-58.656 -64.335 190.44 94 102 129
-56.806 -63.564 188.72 98 106 132
-57.088 -64.602 192.55 97 109 131
-55.288 -63.857 190.89 72 92 129
-54.079 -63.612 190.75 100 112 143
-53.098 -63.564 191.23 102 111 140
-51.892 -63.311 191.05 98 113 135
-51.656 -63.94 193.62 91 99 114
-49.956 -63.226 191.98 94 101 129
-48.759 -62.966 191.75 91 87 88
-47.482 -62.622 191.24 84 71 74
-46.876 -62.918 192.75 73 54 56
-45.431 -62.397 191.66 27 31 62
-44.633 -62.507 192.56 57 81 117
-43.438 -62.218 192.18 31 27 35
-42.723 -62.414 193.34 110 114 127
-41.313 -61.889 192.18 115 129 160
-40.175 -61.638 191.89 116 130 156
-39.564 -61.946 193.39 116 129 161
-38.32 -61.569 192.67 114 129 158
-37.611 -61.777 193.83 116 129 163
-36.188 -61.184 192.38 117 131 158
-35.356 -61.25 193.07 109 131 164
-34.45 -61.233 193.47 94 126 155
-33.574 -61.25 193.98 96 114 153
-32.649 -61.209 194.29 109 100 127
-31.706 -61.145 194.52 109 114 105
-30.746 -61.056 194.65 116 129 129
-29.122 -60.113 191.95 118 129 151
-28.656 -60.647 194.12 118 132 165
-27.722 -60.578 194.3 117 132 161
-26.809 -60.535 194.54 120 133 164
-25.627 -60.118 193.54 118 131 163
-24.865 -60.278 194.44 119 130 162
-23.827 -60.047 194.03 119 134 159
-22.899 -59.967 194.12 118 132 164
-22.067 -60.029 194.68 114 130 157
-21.331 -60.242 195.74 115 125 155
-20.315 -60.024 195.33 115 125 158
-19.291 -59.782 194.84 111 127 155
-18.48 -59.881 195.49 112 124 155
-17.472 -59.65 195.02 113 126 151
-16.741 -59.892 196.14 110 126 151
-15.698 -59.588 195.4 109 123 151
-14.908 -59.733 196.17 110 123 150
-14.056 -59.77 196.58 113 123 152
-13.17 -59.743 196.75 110 125 150
-12.191 -59.526 196.27 109 122 148
-11.393 -59.674 197.03 110 119 147
-10.526 -59.682 197.31 108 123 145
-9.6031 -59.568 197.15 109 121 145
-8.8929 -59.932 198.63 107 119 138
-7.9489 -59.77 198.3 106 119 138
-7.0166 -59.625 198.02 98 100 109
-6.0695 -59.432 197.57 100 99 110
-5.259 -59.586 198.3 94 89 119
-4.3872 -59.584 198.49 78 104 131
-3.5013 -59.542 198.53 94 114 137
-2.7127 -59.788 199.56 103 115 138
-1.7728 -59.584 199.03 103 115 139
-0.90392 -59.594 199.22 102 116 140
0.067083 -59.252 198.2 102 113 139
0.87277 -59.477 199.13 102 113 137
1.7425 -59.481 199.29 100 111 134
2.5544 -59.724 200.27 97 114 133
3.4637 -59.574 199.88 97 108 133
4.3001 -59.745 200.59 98 110 129
5.2004 -59.621 200.28 98 106 133
6.0382 -59.818 201.07 97 109 130
6.9361 -59.697 200.75 98 108 127
7.8051 -59.739 201 94 107 122
8.6937 -59.653 200.78 95 104 125
9.5666 -59.673 200.94 94 105 125
10.438 -59.71 201.14 93 103 124
11.321 -59.65 201 61 55 53
12.2 -59.607 200.91 40 35 23
13.089 -59.41 200.27 50 41 29
13.886 -60.929 205.62 36 39 43
14.766 -61.411 207.35 42 40 41
15.676 -61.045 206.1 47 48 55
16.575 -60.876 205.54 60 63 74
17.472 -61.01 206.02 40 60 84
18.38 -61.406 207.42 56 71 93
19.282 -61.337 207.18 75 84 95
20.186 -61.359 207.26 72 80 95
21.068 -61.048 206.16 72 83 98
21.959 -60.941 205.77 72 81 95
22.895 -61.324 207.09 71 82 96
23.8 -61.325 207.06 72 77 89
24.729 -61.515 207.68 71 77 93
25.669 -61.738 208.41 71 80 91
26.558 -61.603 207.89 68 82 91
27.446 -61.477 207.39 68 76 92
28.372 -61.572 207.65 69 74 87
29.331 -61.815 208.43 66 75 90
30.154 -61.406 206.92 67 74 84
31.119 -61.651 207.68 66 74 89
32.104 -61.946 208.61 64 74 87
33.06 -62.095 209.02 65 72 87
33.963 -62.04 208.72 63 73 82
34.906 -62.125 208.9 64 71 86
35.789 -62.007 208.36 64 69 83
36.887 -62.56 210.15 61 68 84
37.757 -62.395 209.43 62 67 81
38.644 -62.288 208.91 61 68 81
39.588 -62.345 208.94 60 66 77
40.661 -62.73 210.11 59 67 77
41.48 -62.454 208.98 58 66 78
42.489 -62.654 209.49 58 64 74
43.435 -62.69 209.43 57 62 74
44.448 -62.875 209.87 55 62 71
45.377 -62.864 209.62 46 59 69
46.435 -63.125 210.31 50 59 70
47.457 -63.297 210.67 48 47 63
48.348 -63.199 210.11 52 60 71
49.525 -63.652 211.42 51 60 68
50.499 -63.704 211.35 51 58 68
51.563 -63.913 211.81 51 58 71
52.657 -64.164 212.4 51 58 67
53.649 -64.227 212.34 51 59 67
54.255 -63.641 210.06 48 56 64
55.571 -64.241 211.81 50 56 66
56.799 -64.67 212.97 49 54 63
58.321 -65.536 215.6 50 55 64
58.79 -64.765 212.66 46 55 65
59.971 -65.082 213.41 47 53 60
60.94 -65.078 213.05 47 53 58
61.485 -64.473 210.66 47 50 63
63.315 -65.677 214.37 46 52 59
64.528 -65.991 215.06 45 53 60
65.491 -65.959 214.57 44 52 59
66.333 -65.77 213.55 44 50 58
66.503 -64.729 209.67 45 49 56
69.072 -66.737 215.99 44 49 60
69.282 -65.763 212.32 42 48 55
70.814 -66.424 214.1 42 46 55
71.857 -66.481 213.86 40 47 55
72.682 -66.28 212.75 43 45 57
74.737 -67.494 216.32 36 42 52
74.849 -66.48 212.5 39 45 51
76.15 -66.815 213.14 41 46 54
77.501 -67.193 213.9 40 46 54
78.639 -67.329 213.86 38 45 53
81.146 -68.903 218.51 39 45 53
82.278 -69.001 218.31 39 43 53
82.291 -67.954 214.38 40 44 52
84.33 -68.973 217.16 40 45 53
85.953 -69.55 218.49 38 45 54
86.779 -69.332 217.23 37 43 52
87.223 -68.754 214.8 37 42 50
89.93 -70.332 219.31 37 44 49
89.886 -69.3 215.42 36 44 53
92.81 -71.024 220.35 37 41 50
93.888 -71.026 219.76 35 43 49
93.844 -70.025 215.96 37 41 47
95.948 -70.945 218.28 37 42 47
97.85 -71.663 219.93 0 0 0
99.46 -72.111 220.72 0 0 0
99.129 -70.903 216.28 0 0 0
100.74 -71.35 217.05 0 0 0
105.29 -74.209 225.35 0 0 0
102.82 -71.276 215.54 0 0 0
107.43 -74.112 223.72 0 0 0
108.46 -74.031 222.8 0 0 0
107.92 -72.716 218.07 0 0 0
110.34 -73.735 220.56 0 0 0
-70.519 -65.181 189.67 0 0 0
-68.097 -64.107 187.11 0 0 0
-68.555 -65.166 190.99 85 94 113
-69.031 -66.262 195.02 87 93 118
-65.458 -64.278 189.66 77 74 113
-64.171 -64.022 189.55 86 100 125
-63.49 -64.233 190.87 88 98 124
-62.146 -63.923 190.59 86 87 106
-60.61 -63.45 189.8 86 84 121
-58.411 -62.426 187.27 97 107 132
-58.491 -63.254 190.5 96 108 137
-58.249 -63.834 192.96 99 109 139
-56.123 -62.836 190.48 97 113 138
-55.098 -62.755 190.86 100 114 136
-53.14 -61.862 188.66 94 111 142
-52.008 -61.671 188.68 94 105 142
-51.282 -61.836 189.8 106 117 145
-50.746 -62.177 191.49 103 120 145
-49.785 -62.139 191.97 81 97 111
-48.428 -61.731 191.25 108 118 149
-47.915 -62.106 193.03 108 120 150
-46.493 -61.625 192.05 115 126 151
-46.221 -62.243 194.61 90 121 155
-43.538 -60.509 189.54 113 124 160
-43.5 -61.362 192.85 101 125 156
-41.704 -60.46 190.45 114 128 156
-41.13 -60.788 192.04 116 132 159
-40.019 -60.565 191.82 97 119 151
-39.027 -60.46 191.98 115 133 163
-38.609 -60.971 194.16 117 132 158
-37.16 -60.369 192.66 116 119 134
-36.341 -60.45 193.41 118 134 168
-35.871 -60.929 195.47 121 133 161
-34.44 -60.315 193.89 119 134 165
-33.373 -60.108 193.65 118 135 163
-32.501 -60.126 194.16 122 137 164
-31.31 -59.757 193.35 120 137 164
-30.358 -59.67 193.48 120 134 166
-29.441 -59.625 193.75 119 136 169
-28.514 -59.564 193.95 121 135 168
-27.677 -59.62 194.54 121 133 167
-26.532 -59.266 193.73 119 134 162
-25.627 -59.225 193.97 122 134 162
-24.706 -59.161 194.12 118 133 164
-23.765 -59.065 194.16 119 132 161
-22.776 -58.896 193.94 120 129 162
-21.969 -58.99 194.6 114 127 158
-21.133 -59.044 195.13 117 130 157
-20.322 -59.14 195.79 118 126 156
-19.109 -58.6 194.25 117 130 157
-18.442 -58.927 195.69 116 125 154
-17.581 -58.944 196.06 113 127 158
-16.544 -58.66 195.38 113 128 153
-15.77 -58.826 196.24 114 128 153
-14.947 -58.911 196.82 112 127 152
-13.911 -58.606 196.04 113 127 149
-13.195 -58.896 197.31 112 125 155
-12.232 -58.715 196.95 111 125 145
-11.377 -58.747 197.31 111 125 152
-10.546 -58.828 197.84 110 122 146
-9.6933 -58.87 198.22 110 124 145
-8.7603 -58.734 197.98 110 122 144
-7.9396 -58.85 198.61 111 121 146
-7.0249 -58.748 198.47 107 122 145
-6.1717 -58.793 198.83 107 120 144
-5.2923 -58.774 198.97 110 120 146
-4.4047 -58.732 199.01 108 117 142
-3.4555 -58.512 198.43 106 119 143
-2.6446 -58.682 199.21 104 119 139
-1.6559 -58.319 198.1 82 101 122
-0.9027 -58.684 199.55 105 117 138
-0.0057116 -58.598 199.41 105 115 137
0.85942 -58.617 199.63 102 115 134
1.7464 -58.557 199.56 103 113 136
2.6055 -58.603 199.86 99 111 135
3.5298 -58.375 199.18 99 110 134
4.37 -58.502 199.75 98 111 132
5.2419 -58.494 199.84 99 109 128
6.0864 -58.631 200.43 99 110 134
6.9394 -58.745 200.94 97 109 127
7.8287 -58.651 200.7 96 108 129
8.6936 -58.71 201 97 105 126
9.5777 -58.633 200.81 93 105 128
10.45 -58.645 200.93 93 105 122
11.261 -59.294 203.29 73 87 106
12.227 -58.279 199.75 42 34 26
13.059 -58.849 201.83 45 37 26
13.886 -59.853 205.44 46 35 23
14.78 -59.83 205.4 40 43 47
15.671 -59.944 205.84 52 54 61
16.567 -59.705 205.01 66 71 83
17.459 -59.796 205.36 40 51 76
18.356 -59.953 205.93 59 76 91
19.256 -60.054 206.29 50 66 93
20.147 -59.923 205.82 62 69 92
21.056 -60.114 206.49 69 79 93
21.947 -60.025 206.16 73 81 96
22.85 -60.073 206.31 73 80 93
23.786 -60.387 207.39 73 82 98
24.673 -60.26 206.91 72 81 96
25.564 -60.183 206.58 72 78 99
26.524 -60.547 207.83 72 80 96
27.411 -60.431 207.36 70 78 87
28.397 -60.846 208.76 71 79 93
29.28 -60.708 208.19 70 76 91
30.195 -60.731 208.19 67 78 90
31.114 -60.763 208.22 67 74 89
32.28 -61.76 211.66 65 74 86
32.936 -60.757 208 67 72 90
33.86 -60.8 208.04 66 72 84
34.854 -61.068 208.87 62 74 85
35.747 -60.992 208.47 65 73 84
36.665 -60.997 208.36 62 71 82
37.534 -60.858 207.73 62 70 80
38.469 -60.913 207.77 61 68 83
39.685 -61.71 210.43 59 68 79
40.529 -61.494 209.5 59 68 76
41.514 -61.64 209.84 58 65 76
42.505 -61.788 210.18 57 64 77
43.221 -61.3 208.27 55 65 77
44.439 -61.949 210.36 56 63 75
45.519 -62.261 211.25 43 53 69
46.453 -62.252 211 54 62 72
47.396 -62.259 210.8 37 42 61
48.314 -62.219 210.43 54 59 68
49.541 -62.761 212.09 48 55 67
50.446 -62.683 211.57 53 59 69
51.381 -62.662 211.24 52 59 70
52.204 -62.448 210.23 52 58 69
53.481 -63.011 211.92 33 43 60
54.442 -63.026 211.68 26 40 61
55.516 -63.22 212.06 52 54 64
56.183 -62.766 210.19 48 57 64
57.361 -63.116 211.1 49 55 67
58.329 -63.134 210.85 48 55 63
59.432 -63.348 211.26 47 54 65
60.838 -63.986 213.12 48 53 64
61.992 -64.243 213.66 49 54 62
62.769 -63.973 212.38 45 52 63
64.079 -64.428 213.57 46 53 60
65.138 -64.534 213.56 47 51 61
65.485 -63.721 210.4 45 49 59
67.108 -64.546 212.83 42 52 58
68.223 -64.712 212.99 45 50 59
69.6 -65.189 214.2 45 49 54
70.734 -65.358 214.35 43 50 56
71.992 -65.667 214.96 45 46 59
73.419 -66.157 216.17 43 47 58
74.282 -65.994 215.17 40 46 57
75.429 -66.151 215.24 41 46 55
76.282 -65.981 214.19 40 47 57
77.551 -66.262 214.66 39 44 53
79.282 -67.021 216.7 37 41 52
80.382 -67.1 216.46 40 46 52
81.34 -67.032 215.72 40 45 57
82.469 -67.136 215.55 39 46 52
83.387 -67.028 214.66 39 44 55
85.223 -67.818 216.73 39 43 54
88.255 -69.731 222.47 34 42 52
86.865 -67.405 214.27 39 42 50
89.14 -68.563 217.49 38 41 51
89.653 -68.068 215.3 37 42 50
91.851 -69.112 218.12 35 43 49
93.045 -69.23 217.9 36 41 49
94.827 -69.862 219.34 36 41 49
95.437 -69.457 217.42 35 42 50
96.721 -69.641 217.4 0 0 0
99.201 -70.831 220.6 0 0 0
100.11 -70.675 219.46 0 0 0
101.66 -71.058 220.04 0 0 0
102.01 -70.45 217.45 0 0 0
106.42 -73.116 225.27 0 0 0
103.37 -69.802 214.11 0 0 0
106.21 -71.175 217.8 0 0 0
108.69 -72.239 220.49 0 0 0
110.77 -72.976 222.14 0 0 0
-69.296 -63.33 187.41 81 92 117
-68.229 -63.25 187.85 86 96 116
-67.162 -63.168 188.28 86 97 121
-66.886 -63.674 190.53 80 101 126
-66.013 -63.74 191.42 87 101 123
-63.364 -62.451 188.09 92 104 125
-62.517 -62.524 188.99 70 101 126
-61.881 -62.763 190.41 95 106 133
-62.39 -63.913 194.71 97 109 131
-59.06 -62.016 189.38 52 77 127
-57.224 -61.283 187.71 85 105 137
-56.246 -61.236 188.2 89 100 137
-56.252 -62.006 191.3 86 108 143
-55.116 -61.833 191.38 86 106 143
-54.199 -61.843 192.04 88 105 145
-52.918 -61.538 191.68 88 105 140
-51.553 -61.15 191.04 93 106 141
-51.33 -61.766 193.65 72 104 133
-49.579 -61.024 191.83 90 111 143
-48.234 -60.631 191.14 92 110 146
-47.83 -61.099 193.25 68 81 120
-46.375 -60.592 192.15 48 43 46
-44.643 -59.806 190.13 113 126 159
-43.713 -59.773 190.56 117 125 150
-43.605 -60.546 193.66 95 108 142
-42.054 -59.905 192.07 116 131 160
-41.645 -60.398 194.23 116 132 163
-40.263 -59.908 193.11 107 114 126
-38.914 -59.435 192.04 121 135 168
-38.49 -59.93 194.19 119 135 166
-37.217 -59.526 193.32 120 136 163
-35.974 -59.14 192.5 121 136 167
-35.058 -59.106 192.85 122 135 169
-34.359 -59.317 194.02 122 138 165
-33.132 -58.927 193.15 124 135 168
-32.354 -59.05 194.01 121 136 170
-31.255 -58.792 193.56 124 135 169
-30.257 -58.65 193.5 122 138 171
-29.029 -58.216 192.43 122 140 165
-28.494 -58.643 194.29 119 137 170
-27.301 -58.237 193.29 123 135 169
-26.728 -58.632 195.04 122 134 169
-25.543 -58.22 194 123 135 163
-24.765 -58.351 194.82 123 137 167
-23.788 -58.208 194.69 121 137 167
-22.895 -58.179 194.94 120 135 163
-21.822 -57.885 194.27 117 129 160
-20.979 -57.922 194.74 117 130 156
-19.973 -57.711 194.33 112 131 160
-19.29 -58 195.66 116 128 153
-18.295 -57.799 195.27 120 128 154
-17.467 -57.864 195.8 117 128 155
-16.685 -58.01 196.61 114 126 151
-15.64 -57.708 195.84 116 124 156
-14.932 -57.992 197.12 111 127 154
-13.932 -57.756 196.57 111 129 156
-13.072 -57.77 196.88 113 127 154
-12.207 -57.776 197.16 112 125 156
-11.294 -57.687 197.1 116 124 148
-10.535 -57.911 198.14 113 126 150
-9.5077 -57.576 197.19 114 125 148
-8.5993 -57.483 197.09 112 125 147
-7.7533 -57.525 197.46 111 125 149
-7.0067 -57.808 198.68 109 124 145
-6.009 -57.494 197.77 108 122 147
-5.155 -57.523 198.07 109 122 146
-4.3508 -57.688 198.86 108 123 144
-3.4358 -57.56 198.59 107 120 141
-2.5029 -57.369 198.08 107 116 137
-1.7146 -57.601 199.08 108 118 142
-0.85939 -57.642 199.39 105 118 141
0.020754 -57.605 199.42 104 115 140
0.89074 -57.6 199.55 102 116 136
1.6417 -58.041 201.28 103 115 136
2.6743 -57.419 199.18 99 113 135
3.5056 -57.567 199.84 101 112 136
4.352 -57.669 200.33 99 111 131
5.1788 -57.883 201.22 100 114 133
6.0998 -57.637 200.44 99 112 132
6.9412 -57.805 201.15 99 112 130
7.8106 -57.831 201.34 99 110 130
8.7562 -57.334 199.63 97 107 132
9.5623 -57.805 201.41 96 110 124
10.452 -57.667 200.99 94 106 124
11.31 -57.815 201.59 50 42 35
12.193 -57.718 201.3 50 37 26
13.022 -58.381 203.75 54 43 26
13.879 -58.911 205.71 46 38 25
14.773 -58.856 205.56 41 45 50
15.662 -58.976 206.02 53 58 65
16.554 -59.412 207.63 66 71 84
17.45 -58.894 205.77 74 81 96
18.341 -58.826 205.54 77 84 100
19.232 -58.791 205.42 74 87 98
20.132 -58.947 205.98 66 60 92
21.035 -59.056 206.37 40 62 91
21.927 -58.999 206.15 75 84 96
22.84 -59.165 206.72 76 85 100
23.755 -59.308 207.21 73 83 95
24.644 -59.215 206.84 74 84 98
25.595 -59.557 208.03 71 83 98
26.441 -59.197 206.67 72 80 96
27.402 -59.533 207.83 71 81 91
28.318 -59.586 207.95 71 79 94
29.243 -59.671 208.19 70 79 94
30.113 -59.503 207.5 68 78 92
31.002 -59.432 207.16 69 78 89
32.026 -59.891 208.72 68 75 87
32.969 -60.003 209.02 66 77 84
33.856 -59.91 208.57 66 75 88
34.804 -60.024 208.87 66 74 84
35.752 -60.123 209.1 64 72 85
36.558 -59.796 207.78 62 70 82
37.648 -60.3 209.46 62 72 79
38.516 -60.157 208.79 61 70 82
39.501 -60.331 209.26 59 68 84
40.59 -60.751 210.6 62 68 82
41.47 -60.634 210.01 61 69 81
42.343 -60.509 209.39 58 69 76
43.326 -60.639 209.66 57 65 75
44.398 -60.953 210.59 42 44 66
45.265 -60.815 209.9 56 65 74
46.382 -61.195 211.03 53 54 67
47.141 -60.844 209.57 42 55 71
48.114 -60.924 209.62 43 53 67
49.241 -61.282 210.66 35 49 66
50.194 -61.308 210.51 51 60 68
51.317 -61.629 211.39 52 60 68
52.008 -61.196 209.59 54 57 68
53.3 -61.782 211.4 51 54 65
54.03 -61.429 209.87 51 59 69
55.25 -61.866 211.13 52 59 63
56.107 -61.723 210.33 50 58 67
57.755 -62.776 213.73 48 56 67
58.364 -62.252 211.57 49 56 63
59.723 -62.83 213.28 41 51 63
60.732 -62.89 213.15 47 54 64
61.39 -62.463 211.31 47 54 61
62.504 -62.669 211.68 47 54 65
63.535 -62.756 211.63 49 53 64
65.141 -63.581 214.13 45 52 61
66.115 -63.574 213.72 44 51 59
67.156 -63.649 213.59 43 51 59
67.527 -62.905 210.62 45 49 59
69.207 -63.752 213.14 43 49 59
70.394 -63.99 213.54 44 50 59
71.668 -64.318 214.24 42 49 58
73.294 -65.033 216.26 40 48 59
73.829 -64.51 214.01 41 44 56
74.806 -64.487 213.48 40 46 55
76.121 -64.827 214.17 40 49 53
77.464 -65.185 214.91 40 46 53
78.143 -64.841 213.26 40 47 56
80.363 -66.082 216.97 41 47 55
81.024 -65.716 215.22 40 43 54
81.919 -65.592 214.28 33 39 51
83.286 -65.931 214.9 30 40 52
85.636 -67.204 218.63 36 42 51
85.239 -65.841 213.51 39 43 55
87.232 -66.742 215.98 41 42 53
88.662 -67.101 216.61 37 44 51
89.709 -67.103 216.04 38 42 52
91.981 -68.196 219.08 36 43 50
92.835 -68.011 217.87 36 42 48
94.83 -68.821 219.93 35 42 49
95.585 -68.547 218.41 36 41 50
96.621 -68.516 217.69 0 0 0
97.892 -68.682 217.61 0 0 0
99.796 -69.363 219.2 0 0 0
101.28 -69.684 219.6 0 0 0
102.35 -69.669 218.9 0 0 0
103.69 -69.866 218.88 0 0 0
107.51 -71.992 225.07 0 0 0
105.99 -69.945 217.82 0 0 0
109.5 -71.783 223.04 0 0 0
110.61 -71.762 222.3 0 0 0
-69.313 -62.386 187.88 81 92 117
-69.342 -63.095 190.79 82 99 121
-67.403 -62.389 189.28 89 100 123
-65.689 -61.832 188.21 88 104 127
-64.762 -61.847 188.94 88 102 123
-63.393 -61.529 188.61 92 105 131
-62.913 -61.88 190.41 91 102 125
-61.124 -61.23 189.01 97 109 135
-60.626 -61.571 190.77 95 112 136
-58.185 -60.386 187.62 97 112 139
-58.09 -61.047 190.41 96 109 144
-57.201 -61.081 191.17 100 110 138
-55.219 -60.22 189.01 102 115 145
-55.035 -60.829 191.63 106 118 144
-53.749 -60.527 191.28 106 119 149
-53.299 -60.929 193.22 110 119 151
-51.323 -60.024 190.85 109 120 148
-50.524 -60.125 191.79 96 91 111
-49.309 -59.859 191.5 95 111 142
-48.204 -59.684 191.51 102 111 122
-47.639 -59.997 193.13 112 125 150
-46.301 -59.603 192.39 116 127 160
-45.418 -59.625 193.02 112 113 118
-43.472 -58.635 190.24 118 132 157
-42.731 -58.781 191.27 115 121 138
-41.911 -58.854 192.04 118 133 163
-40.775 -58.612 191.75 117 133 163
-40.196 -58.929 193.34 118 136 165
-38.841 -58.456 192.23 121 135 168
-37.917 -58.42 192.6 107 92 133
-36.867 -58.248 192.49 119 135 165
-36.336 -58.631 194.28 121 138 163
-35.1 -58.252 193.45 123 136 161
-34.866 -58.98 196.42 124 138 164
-33.194 -58.099 193.83 123 135 165
-32.409 -58.212 194.66 120 137 165
-30.895 -57.471 192.52 124 139 166
-30.23 -57.722 193.81 125 136 167
-29.043 -57.344 192.91 124 138 166
-28.495 -57.748 194.72 125 139 167
-27.446 -57.531 194.36 125 133 167
-26.484 -57.419 194.35 125 137 167
-25.49 -57.26 194.17 122 135 165
-24.696 -57.365 194.91 123 135 171
-23.727 -57.232 194.8 121 134 169
-22.858 -57.235 195.17 120 135 159
-21.896 -57.105 195.05 117 131 158
-20.89 -56.904 194.67 118 127 159
-20.101 -57.021 195.42 117 132 155
-19.303 -57.13 196.13 118 131 153
-18.453 -57.162 196.55 119 130 159
-17.529 -57.076 196.55 116 130 161
-16.683 -57.117 197 116 129 156
-15.634 -56.812 196.19 118 127 157
-14.739 -56.76 196.29 118 132 155
-13.806 -56.639 196.13 114 128 154
-12.992 -56.731 196.72 116 129 155
-12.088 -56.658 196.72 113 126 151
-11.204 -56.618 196.83 114 128 150
-10.313 -56.563 196.88 113 126 150
-9.5353 -56.745 197.77 116 126 157
-8.6408 -56.684 197.78 114 125 154
-7.8841 -56.93 198.89 116 125 149
-6.9654 -56.816 198.69 111 124 150
-5.9955 -56.57 198 111 126 147
-5.0336 -56.324 197.31 110 122 149
-4.2585 -56.55 198.32 108 121 145
-3.3106 -56.322 197.68 113 121 146
-2.4958 -56.455 198.34 109 121 144
-1.6742 -56.581 198.97 106 120 146
-0.86121 -56.747 199.74 102 114 133
0.089576 -56.476 198.91 105 117 141
0.93977 -56.526 199.24 104 116 142
1.7703 -56.655 199.86 101 115 139
2.6789 -56.496 199.41 102 113 137
3.5075 -56.65 200.1 104 115 135
4.397 -56.555 199.88 101 112 131
5.22 -56.765 200.76 100 113 133
6.0708 -56.867 201.25 98 114 132
7.0247 -56.408 199.66 99 112 131
7.8201 -56.838 201.34 99 111 129
8.7274 -56.599 200.55 99 109 125
9.559 -56.883 201.67 100 109 130
10.454 -56.693 201.05 97 108 126
11.31 -56.846 201.68 49 41 31
12.179 -56.898 201.93 46 35 24
13.059 -56.819 201.69 53 40 27
13.911 -57.216 203.2 48 37 26
14.781 -57.489 204.25 42 45 52
15.665 -57.482 204.25 57 62 68
16.547 -58.075 206.46 68 75 86
17.439 -57.868 205.72 73 84 96
18.333 -58.011 206.26 76 86 102
19.226 -57.992 206.2 78 86 106
20.121 -58.021 206.3 78 85 104
21.024 -58.144 206.75 74 81 96
21.931 -58.259 207.16 75 86 95
22.825 -58.22 206.99 75 82 98
23.713 -58.135 206.65 68 79 96
24.625 -58.246 207.02 75 86 103
25.537 -58.334 207.3 75 84 95
26.438 -58.337 207.26 73 81 95
27.361 -58.457 207.64 73 82 94
28.31 -58.687 208.42 73 82 93
29.221 -58.709 208.43 71 81 92
30.046 -58.35 207.03 71 78 92
31.057 -58.792 208.57 68 78 91
31.97 -58.808 208.53 69 76 90
32.872 -58.779 208.32 69 76 90
33.803 -58.85 208.47 66 76 91
34.731 -58.908 208.57 65 75 86
35.69 -59.052 208.97 67 74 87
36.548 -58.885 208.23 64 73 85
37.604 -59.288 209.56 65 72 86
38.54 -59.333 209.58 62 71 86
39.511 -59.465 209.91 64 71 81
40.405 -59.395 209.49 60 70 81
41.327 -59.397 209.32 60 69 79
42.342 -59.609 209.92 60 70 76
43.361 -59.815 210.49 60 66 77
44.299 -59.835 210.36 56 67 76
45.28 -59.941 210.55 56 64 76
46 -59.518 208.8 54 58 74
47.291 -60.227 211.15 57 66 73
48.236 -60.243 210.98 58 63 71
49.169 -60.236 210.72 42 47 59
50.169 -60.347 210.88 52 61 68
51.038 -60.225 210.19 54 59 71
52.001 -60.268 210.08 55 57 65
53.268 -60.805 211.75 39 54 67
54.219 -60.811 211.49 38 43 63
55.343 -61.084 212.19 34 43 60
56.275 -61.052 211.78 51 57 65
57.339 -61.218 212.06 50 56 65
58.209 -61.094 211.31 49 55 66
59.675 -61.819 213.58 49 53 63
60.445 -61.548 212.28 50 56 66
61.434 -61.584 212.06 47 55 63
62.294 -61.448 211.23 48 53 64
63.702 -62.03 212.94 46 52 60
64.915 -62.337 213.66 47 54 62
66.239 -62.771 214.81 44 52 58
67.05 -62.561 213.68 46 53 60
68.519 -63.148 215.35 46 52 60
68.929 -62.465 212.54 45 51 58
70.618 -63.284 215 45 50 60
71.553 -63.219 214.34 34 41 56
72.722 -63.416 214.59 41 47 55
73.9 -63.614 214.84 41 46 56
74.723 -63.424 213.72 39 45 55
76.142 -63.87 214.8 39 45 54
77.378 -64.111 215.16 42 48 56
79.082 -64.822 217.13 41 46 57
78.337 -63.045 210.5 41 46 56
81.047 -64.745 215.86 39 46 57
83.144 -65.794 218.94 40 45 54
84.191 -65.802 218.44 42 45 54
85.508 -66.066 218.79 40 45 53
86.33 -65.859 217.53 40 45 52
87.52 -65.996 217.44 39 44 54
87.574 -65.102 213.84 39 43 54
90.547 -66.832 219.13 37 44 52
91.791 -66.996 219.09 38 41 52
93.088 -67.199 219.17 36 44 49
92.86 -66.095 214.86 38 43 50
93.959 -66.137 214.4 36 42 51
97.449 -68.166 220.56 36 41 50
97.723 -67.501 217.71 0 0 0
97.684 -66.602 214.09 0 0 0
101.28 -68.626 220.16 0 0 0
102.21 -68.5 219.09 0 0 0
102.97 -68.242 217.59 0 0 0
104.71 -68.743 218.57 0 0 0
108.72 -70.95 225.12 0 0 0
107.31 -69.047 218.24 0 0 0
110.88 -70.874 223.5 0 0 0
-69.424 -61.507 188.56 86 99 122
-68.119 -61.262 188.48 88 99 123
-68.214 -62.012 191.57 93 102 125
-65.35 -60.638 187.87 93 105 129
-65.816 -61.669 191.88 96 106 128
-63.245 -60.475 188.71 79 63 73
-62.495 -60.616 189.85 96 108 136
-60.892 -60.114 188.89 96 111 135
-59.708 -59.921 188.93 98 112 140
-58.719 -59.873 189.44 101 116 139
-58.512 -60.44 191.96 105 115 145
-56.937 -59.931 190.94 103 117 141
-54.258 -58.519 186.9 105 117 140
-54.214 -59.222 189.87 107 119 145
-53.066 -59.03 189.85 107 120 148
-51.791 -58.726 189.45 107 119 146
-51.358 -59.13 191.41 113 124 154
-50.261 -58.972 191.49 106 117 131
-49.252 -58.886 191.79 110 125 153
-49.114 -59.57 194.69 86 115 145
-47.947 -59.349 194.53 111 126 149
-46.605 -58.961 193.78 114 127 153
-45.32 -58.615 193.16 118 131 158
-43.937 -58.167 192.18 117 132 161
-42.804 -57.943 191.95 116 129 151
-41.81 -57.848 192.15 121 135 164
-40.821 -57.753 192.35 108 130 163
-39.645 -57.469 191.88 121 135 171
-39.23 -57.948 194.03 120 138 169
-37.785 -57.381 192.56 123 138 168
-36.873 -57.354 192.95 122 135 166
-35.852 -57.209 192.92 124 137 169
-35.048 -57.295 193.68 125 137 168
-33.969 -57.081 193.39 124 141 167
-32.73 -56.68 192.42 123 140 174
-32.167 -57.036 194.11 123 138 169
-31.281 -57.03 194.52 123 138 166
-30.184 -56.774 194.04 124 141 171
-29.337 -56.81 194.58 124 140 172
-28.247 -56.548 194.05 121 140 170
-27.666 -56.915 195.75 125 137 165
-26.467 -56.507 194.68 125 137 168
-25.474 -56.351 194.5 120 136 162
-24.593 -56.336 194.82 123 138 167
-23.695 -56.3 195.04 120 136 171
-22.804 -56.271 195.3 124 135 163
-21.773 -56.042 194.81 119 132 159
-21.065 -56.273 195.98 120 132 163
-20.167 -56.232 196.16 120 131 161
-19.261 -56.176 196.28 122 132 160
-18.312 -56.052 196.14 119 131 155
-17.552 -56.223 197.07 121 131 161
-16.598 -56.085 196.87 117 131 158
-15.432 -55.584 195.33 118 133 151
-14.748 -55.89 196.72 115 130 158
-13.872 -55.871 196.93 116 129 155
-12.916 -55.706 196.59 116 131 155
-12.098 -55.79 197.15 117 126 155
-11.141 -55.611 196.75 118 128 153
-10.253 -55.557 196.79 114 128 150
-9.5037 -55.79 197.88 113 127 155
-8.4989 -55.491 197.01 115 127 150
-7.6848 -55.594 197.61 113 126 151
-6.8373 -55.628 197.95 112 126 154
-5.9501 -55.571 197.95 115 126 147
-5.0121 -55.384 197.45 111 125 149
-4.2561 -55.652 198.64 109 122 145
-3.3688 -55.589 198.59 110 123 146
-2.5874 -55.82 199.62 113 124 147
-1.6394 -55.582 198.91 109 119 144
-0.83342 -55.761 199.74 102 116 137
0.039752 -55.74 199.82 108 119 142
0.94142 -55.62 199.53 106 119 144
1.7756 -55.732 200.08 105 118 139
2.6374 -55.752 200.29 104 114 136
3.5392 -55.612 199.9 102 118 135
4.3506 -55.848 200.91 104 116 135
5.2627 -55.648 200.27 103 114 135
6.1141 -55.725 200.67 100 111 136
6.9874 -55.696 200.66 99 114 133
7.8979 -55.437 199.79 99 112 132
8.6848 -55.953 201.81 100 108 130
9.6311 -55.397 199.81 101 109 129
10.459 -55.7 201.01 98 107 127
11.31 -55.873 201.73 51 40 28
12.192 -55.757 201.35 49 38 25
13.049 -55.947 202.12 53 42 32
13.889 -56.582 204.55 53 39 24
14.771 -56.605 204.67 45 46 50
15.654 -56.705 205.09 59 65 74
16.539 -56.837 205.61 68 77 86
17.428 -56.863 205.72 76 84 100
18.317 -56.874 205.78 79 84 104
19.208 -56.893 205.86 78 88 102
20.102 -56.96 206.1 60 74 97
20.992 -56.95 206.06 79 88 104
21.899 -57.117 206.67 79 86 100
22.795 -57.132 206.71 76 88 104
23.678 -57.033 206.31 73 81 92
24.614 -57.341 207.42 74 85 99
25.486 -57.167 206.73 75 82 97
26.397 -57.254 207 73 82 97
27.33 -57.441 207.65 75 81 97
28.167 -57.124 206.4 72 82 95
29.193 -57.719 208.55 74 81 94
30.029 -57.419 207.35 72 77 94
30.963 -57.548 207.75 70 80 90
31.942 -57.832 208.71 72 77 90
32.838 -57.787 208.44 69 79 90
33.685 -57.582 207.57 69 76 88
34.738 -58.052 209.21 69 77 86
35.544 -57.726 207.87 70 74 87
36.602 -58.159 209.35 66 74 85
37.552 -58.257 209.58 65 72 86
38.396 -58.063 208.71 64 75 85
39.344 -58.147 208.87 62 71 83
40.237 -58.094 208.51 62 70 82
41.202 -58.21 208.77 62 69 83
42.229 -58.457 209.51 61 68 79
43.145 -58.444 209.28 59 70 81
44.215 -58.755 210.24 61 67 77
45.114 -58.698 209.83 59 65 77
46.067 -58.75 209.81 59 62 76
47.054 -58.864 210.02 56 65 74
48.477 -59.778 213.16 58 62 74
49.431 -59.794 212.99 59 63 75
50.443 -59.911 213.17 56 62 72
50.985 -59.222 210.38 54 61 71
52.198 -59.679 211.81 53 63 70
53.103 -59.614 211.3 53 60 69
54.182 -59.828 211.81 52 58 70
55.214 -59.958 212 48 55 68
56.143 -59.926 211.59 48 58 65
57.363 -60.32 212.72 52 56 67
58.109 -60.021 211.32 52 57 66
59.362 -60.44 212.53 36 50 65
60.517 -60.707 213.16 44 52 64
61.548 -60.796 213.15 39 52 64
62.47 -60.74 212.59 46 54 64
63.543 -60.878 212.74 49 54 65
64.764 -61.196 213.51 45 52 61
65.63 -61.065 212.66 40 39 58
66.603 -61.066 212.29 45 52 59
68.281 -61.899 214.88 44 53 60
68.881 -61.453 212.88 45 51 59
69.898 -61.496 212.62 41 44 55
71.788 -62.513 215.82 37 43 54
72.522 -62.224 214.35 34 40 52
73.58 -62.294 214.16 39 45 55
74.648 -62.373 213.98 45 49 55
76.066 -62.811 215.07 44 48 59
76.988 -62.728 214.3 43 47 56
78.227 -62.966 214.66 36 42 51
79.388 -63.119 214.7 41 46 58
81.648 -64.337 218.47 41 47 56
82.629 -64.289 217.78 40 47 55
83.293 -63.944 216.04 41 47 55
84.259 -63.889 215.31 31 40 58
85.267 -63.873 214.71 41 44 58
87.347 -64.825 217.46 41 45 53
89.354 -65.684 219.86 40 45 54
92.953 -67.914 226.96 39 45 54
91.82 -65.99 219.74 39 44 52
91.582 -64.882 215.34 36 43 52
93.983 -66.021 218.63 39 46 49
94.642 -65.685 216.88 36 44 49
96.459 -66.305 218.37 36 42 50
97.485 -66.269 217.61 0 0 0
97.665 -65.56 214.58 0 0 0
100.93 -67.29 219.78 0 0 0
102.07 -67.333 219.27 0 0 0
102.66 -66.946 217.31 0 0 0
104.49 -67.512 218.55 0 0 0
104.98 -67.058 216.37 0 0 0
108.58 -68.92 221.89 0 0 0
110.69 -69.635 223.57 0 0 0
-69.615 -60.681 189.42 88 103 127
-67.647 -59.979 187.85 89 102 126
-66.844 -60.081 188.88 92 102 125
-63.984 -58.721 185.13 97 104 132
-63.464 -59.014 186.77 93 108 130
-63.219 -59.513 189.09 93 108 133
-63.974 -60.761 193.9 96 110 134
-61.292 -59.475 190.33 99 113 139
-59.141 -58.557 187.95 99 117 144
-58.689 -58.916 189.81 102 114 139
-57.711 -58.876 190.34 101 114 143
-56.511 -58.662 190.27 103 120 145
-54.789 -58.026 188.77 106 120 145
-54.421 -58.463 190.88 108 123 149
-53.386 -58.368 191.19 110 122 153
-52.106 -58.069 190.78 111 123 149
-51.073 -57.967 191.05 111 125 149
-50.166 -57.969 191.66 51 74 113
-48.837 -57.609 191.01 46 33 46
-48.208 -57.848 192.42 65 47 58
-47.5 -58.024 193.61 104 91 97
-45.893 -57.4 192.02 59 49 47
-44.636 -57.076 191.44 49 87 114
-43.842 -57.168 192.31 62 67 74
-42.71 -56.948 192.08 78 59 81
-41.752 -56.885 192.39 83 88 108
-40.496 -56.534 191.68 107 103 142
-39.636 -56.56 192.27 121 134 168
-38.596 -56.407 192.23 123 137 171
-37.738 -56.433 192.82 121 135 169
-36.616 -56.189 192.43 122 136 169
-35.852 -56.311 193.34 122 135 163
-34.931 -56.271 193.66 122 137 173
-33.927 -56.138 193.64 123 139 161
-33.026 -56.115 194 123 139 169
-32.161 -56.132 194.5 125 138 169
-31.255 -56.103 194.83 123 138 166
-30.272 -55.983 194.81 123 137 167
-29.104 -55.64 193.99 124 135 164
-28.255 -55.668 194.49 128 136 169
-27.311 -55.582 194.57 121 136 166
-26.463 -55.612 195.06 125 140 168
-25.567 -55.581 195.33 122 137 165
-24.56 -55.406 195.06 123 138 165
-23.589 -55.27 194.92 123 135 168
-22.639 -55.158 194.86 119 136 165
-21.837 -55.246 195.53 124 136 167
-20.919 -55.175 195.6 119 135 161
-20.129 -55.288 196.34 118 133 162
-19.214 -55.218 196.4 121 135 165
-18.267 -55.096 196.26 121 133 159
-17.421 -55.127 196.68 120 135 157
-16.442 -54.946 196.31 121 131 162
-15.501 -54.819 196.12 115 130 160
-14.758 -55.02 197.15 121 132 161
-13.773 -54.811 196.65 118 130 162
-12.968 -54.916 197.3 117 130 156
-11.935 -54.602 196.39 118 129 151
-11.143 -54.731 197.12 116 128 157
-10.27 -54.708 197.28 117 131 157
-9.2787 -54.444 196.52 119 128 159
-8.6348 -54.894 198.43 117 129 149
-7.712 -54.767 198.18 115 130 147
-6.6895 -54.407 197.04 116 128 152
-5.9309 -54.639 198.11 113 128 151
-5.053 -54.598 198.16 112 124 156
-4.1914 -54.597 198.35 113 126 148
-3.3786 -54.724 199.01 114 122 150
-2.4331 -54.498 198.33 112 122 142
-1.5917 -54.551 198.71 108 122 143
-0.77602 -54.689 199.39 107 120 140
0.15064 -54.487 198.78 108 118 144
0.9159 -54.808 200.15 106 120 142
1.8401 -54.6 199.5 109 119 140
2.6736 -54.711 200.06 108 117 141
3.4975 -54.875 200.81 107 120 143
4.4303 -54.594 199.87 106 118 138
5.3117 -54.511 199.66 100 116 133
6.0939 -54.91 201.29 104 115 132
6.9487 -54.987 201.68 102 115 133
7.8668 -54.702 200.7 102 113 135
8.7655 -54.486 199.96 102 114 134
9.6002 -54.693 200.83 101 112 127
10.474 -54.629 200.66 99 110 127
11.318 -54.837 201.52 47 38 29
12.2 -54.692 201.03 47 39 25
13.051 -54.917 201.94 52 38 27
13.882 -55.654 204.8 54 40 23
14.763 -55.699 205.01 45 47 51
15.644 -55.821 205.51 56 63 71
16.529 -56.108 206.63 70 75 89
17.418 -55.93 205.98 78 87 102
18.302 -55.776 205.4 81 88 97
19.197 -55.968 206.14 79 90 101
20.104 -56.258 207.25 55 69 92
20.986 -56.106 206.66 79 88 105
21.876 -56.075 206.53 81 89 100
22.781 -56.194 206.96 79 85 98
23.667 -56.127 206.68 74 87 100
24.573 -56.219 206.99 74 86 97
25.514 -56.514 208.07 76 86 101
26.368 -56.246 207 76 84 98
27.294 -56.4 207.53 75 82 99
28.196 -56.419 207.54 76 83 96
29.129 -56.567 208.04 72 81 95
30.005 -56.461 207.55 70 80 95
30.911 -56.482 207.55 73 80 94
31.866 -56.678 208.2 73 79 90
32.818 -56.844 208.73 70 79 92
33.651 -56.598 207.69 70 79 92
34.62 -56.803 208.35 70 76 91
35.658 -57.191 209.7 69 76 88
36.409 -56.728 207.82 68 74 88
37.484 -57.185 209.41 66 74 81
38.436 -57.281 209.63 66 73 85
39.285 -57.114 208.85 65 74 89
40.225 -57.175 208.92 64 73 86
41.15 -57.198 208.84 65 71 83
42.128 -57.336 209.18 62 70 80
43.107 -57.466 209.49 62 68 79
44.008 -57.425 209.15 62 69 80
44.998 -57.565 209.47 61 67 78
46.099 -57.91 210.57 59 67 75
47.112 -58.067 210.94 56 66 76
48.143 -58.248 211.4 57 65 73
48.942 -58.006 210.26 57 64 75
50.085 -58.371 211.38 57 63 73
50.965 -58.275 210.78 57 63 74
52.261 -58.861 212.71 56 62 72
53.277 -58.971 212.85 55 61 69
53.984 -58.597 211.18 54 59 71
54.695 -58.247 209.6 52 59 71
56.167 -59.035 212.24 54 60 72
56.833 -58.626 210.42 52 59 67
58.216 -59.242 212.39 50 55 68
59.272 -59.38 212.59 50 58 68
60.277 -59.444 212.5 50 57 71
61.355 -59.601 212.74 45 54 66
62.356 -59.652 212.58 48 55 64
63.403 -59.757 212.61 40 45 58
64.182 -59.528 211.4 47 51 61
65.484 -59.94 212.54 38 46 60
66.486 -59.979 212.31 33 39 56
67.59 -60.134 212.48 28 44 57
68.719 -60.313 212.73 46 51 61
69.706 -60.325 212.36 45 50 58
70.98 -60.651 213.13 40 46 58
72.415 -61.14 214.47 45 50 61
72.979 -60.688 212.39 41 48 59
74.744 -61.501 214.88 43 50 57
75.691 -61.448 214.22 44 49 58
76.729 -61.489 213.9 44 47 57
78.173 -61.93 215 42 48 57
80.548 -63.265 219.28 42 46 57
80.436 -62.17 214.86 34 41 53
82.376 -63.047 217.47 42 47 55
83.112 -62.776 215.98 42 48 57
84.227 -62.861 215.75 41 48 55
85.175 -62.792 214.96 37 43 54
88.14 -64.516 220.5 41 46 57
88.172 -63.622 216.77 42 45 56
90.469 -64.708 220.01 40 46 52
89.145 -62.682 212.32 37 44 54
91.458 -63.762 215.52 40 46 55
93.134 -64.285 216.74 38 44 52
95.581 -65.423 220.08 37 44 54
95.471 -64.472 216.16 38 43 53
97.346 -65.121 217.78 0 0 0
98.182 -64.938 216.51 0 0 0
100.46 -65.877 219.1 0 0 0
101.82 -66.084 219.15 0 0 0
103.32 -66.4 219.57 0 0 0
103.22 -65.511 215.88 0 0 0
105.09 -66.091 217.18 0 0 0
107.18 -66.819 218.98 0 0 0
111.01 -68.776 224.9 0 0 0
-68.496 -58.963 187.35 90 100 123
-67.706 -59.071 188.41 92 104 124
-66.387 -58.814 188.26 95 105 130
-66.349 -59.448 191.07 92 104 127
-64.218 -58.613 188.99 94 107 132
-63.357 -58.669 189.87 98 111 138
-61.474 -57.985 188.25 98 113 138
-60.226 -57.75 188.13 101 114 139
-59.503 -57.898 189.3 97 114 138
-57.087 -56.778 186.16 101 112 137
-57.065 -57.451 189.1 57 64 91
-56.349 -57.607 190.28 102 118 146
-55.359 -57.551 190.74 106 124 148
-53.376 -56.709 188.47 107 124 151
-52.977 -57.115 190.5 109 124 152
-52.508 -57.473 192.36 112 126 151
-51.261 -57.201 192.03 108 122 151
-50.137 -57.024 192.01 114 126 155
-49.166 -56.971 192.43 114 128 158
-48.405 -57.097 193.46 95 90 110
-46.049 -55.841 189.61 114 130 161
-46.47 -56.996 194.25 117 127 157
-44.325 -55.889 190.89 110 132 156
-44.536 -56.889 194.99 119 131 162
-42.743 -56.072 192.62 116 129 167
-41.48 -55.725 191.91 121 134 164
-40.981 -56.095 193.75 120 133 160
-39.572 -55.597 192.47 120 137 161
-38.58 -55.493 192.6 79 117 152
-37.761 -55.557 193.32 123 138 170
-36.722 -55.401 193.24 121 137 164
-35.749 -55.307 193.37 123 134 164
-34.582 -55.008 192.74 122 135 168
-33.656 -54.954 193 126 139 165
-32.739 -54.909 193.28 124 139 162
-31.838 -54.88 193.6 124 139 166
-30.932 -54.844 193.9 123 135 173
-30.095 -54.886 194.47 121 139 165
-29.067 -54.708 194.22 120 136 167
-28.493 -55.062 195.93 125 137 165
-27.308 -54.689 194.95 123 139 165
-26.442 -54.696 195.36 122 137 165
-25.492 -54.598 195.37 125 137 166
-24.476 -54.41 195.04 124 138 168
-23.575 -54.367 195.24 122 141 166
-22.666 -54.31 195.37 121 135 166
-21.736 -54.223 195.39 120 136 165
-20.779 -54.093 195.24 120 135 162
-19.946 -54.136 195.72 124 136 160
-18.979 -53.985 195.47 123 133 160
-18.058 -53.895 195.44 121 135 164
-17.465 -54.309 197.31 120 136 160
-16.489 -54.138 196.96 120 131 158
-15.589 -54.081 197.03 120 132 161
-14.66 -53.972 196.89 121 134 157
-13.687 -53.782 196.44 120 134 157
-12.894 -53.899 197.15 120 131 158
-12.019 -53.875 197.32 120 132 161
-11.173 -53.904 197.68 119 131 158
-10.18 -53.651 196.96 118 131 158
-9.3337 -53.674 197.28 118 128 160
-8.4218 -53.564 197.08 114 128 156
-7.5901 -53.619 197.51 117 127 150
-6.73 -53.615 197.71 115 132 153
-5.8669 -53.605 197.88 112 127 151
-5.0322 -53.662 198.29 112 129 154
-4.1957 -53.72 198.71 114 128 146
-3.2459 -53.489 198 112 124 148
-2.4132 -53.556 198.44 114 124 148
-1.547 -53.534 198.52 108 122 142
-0.69651 -53.558 198.78 109 122 142
0.15712 -53.575 199 112 122 149
1.018 -53.571 199.13 110 121 145
1.9467 -53.33 198.34 109 121 143
2.7176 -53.646 199.7 107 120 142
3.6264 -53.459 199.1 107 118 143
4.4222 -53.724 200.25 106 117 139
5.2741 -53.776 200.57 104 117 137
6.1263 -53.835 200.91 105 117 137
7.0457 -53.547 199.89 106 113 132
7.914 -53.504 199.82 104 115 136
8.749 -53.67 200.55 105 114 135
9.6202 -53.614 200.41 101 112 136
10.481 -53.633 200.56 103 112 128
11.356 -53.519 200.18 47 39 26
12.213 -53.569 200.44 51 40 26
13.051 -53.915 201.84 49 42 27
13.869 -54.832 205.45 54 39 27
14.751 -54.869 205.63 44 46 49
15.638 -54.796 205.38 61 65 73
16.522 -54.842 205.59 73 81 93
17.406 -54.822 205.53 79 89 103
18.295 -54.959 206.08 80 90 103
19.185 -55.022 206.33 82 90 106
20.077 -55.078 206.55 62 68 100
20.969 -55.105 206.65 80 90 99
21.869 -55.208 207.03 82 87 104
22.765 -55.237 207.12 79 87 102
23.66 -55.252 207.16 76 86 102
24.563 -55.319 207.38 75 87 102
25.505 -55.617 208.5 75 86 101
26.354 -55.324 207.31 75 84 98
27.25 -55.327 207.27 73 83 98
28.072 -54.969 205.81 75 82 101
29.133 -55.728 208.69 74 82 98
29.973 -55.468 207.6 73 83 95
30.941 -55.733 208.55 74 80 97
31.822 -55.652 208.14 71 80 93
32.701 -55.571 207.73 73 80 92
33.669 -55.787 208.46 69 78 91
34.51 -55.59 207.58 68 77 88
35.487 -55.807 208.3 68 75 93
36.384 -55.782 208.07 69 79 91
37.323 -55.868 208.27 68 77 87
38.296 -56.036 208.78 69 73 91
39.255 -56.154 209.08 64 72 87
40.2 -56.227 209.21 66 73 85
41.281 -56.606 210.5 63 70 81
42.305 -56.83 211.19 64 71 82
43.238 -56.847 211.07 62 71 79
43.915 -56.339 208.92 62 69 84
44.936 -56.543 209.51 61 68 78
46.198 -57.194 211.8 61 68 80
46.945 -56.851 210.27 59 67 80
47.917 -56.932 210.36 57 66 76
49.06 -57.303 211.55 58 65 79
50.057 -57.409 211.71 60 66 77
51.027 -57.463 211.67 58 65 76
52.019 -57.548 211.74 56 62 74
52.804 -57.306 210.55 57 63 73
53.939 -57.608 211.43 55 62 76
54.9 -57.636 211.26 53 61 71
55.904 -57.725 211.3 54 60 68
57.218 -58.247 212.98 52 58 67
58.08 -58.121 212.19 53 61 69
59.194 -58.34 212.7 52 58 68
59.784 -57.858 210.56 50 58 66
61.343 -58.646 213.19 45 49 60
62.723 -59.174 214.83 45 52 64
63.414 -58.829 213.18 50 57 64
64.404 -58.858 212.93 49 55 66
65.497 -59.008 213.11 49 55 62
66.351 -58.875 212.23 48 53 62
67.524 -59.109 212.72 28 37 54
69.342 -60.058 215.84 33 46 62
70.266 -59.988 215.17 47 54 60
71.453 -60.204 215.54 37 47 59
72.132 -59.872 213.88 36 43 58
73.211 -59.969 213.8 41 49 59
74.509 -60.286 214.52 45 50 60
74.943 -59.722 211.98 44 50 61
76.943 -60.727 215.2 45 51 55
78.298 -61.071 215.98 44 50 56
79.618 -61.37 216.57 43 49 58
80.47 -61.216 215.51 42 48 58
82.377 -62.047 218.01 36 44 54
83.246 -61.903 216.97 41 48 54
84.692 -62.282 217.8 42 47 55
85.101 -61.73 215.26 37 42 54
86.447 -62.012 215.72 43 46 55
88.537 -62.926 218.44 40 46 54
89.469 -62.83 217.52 42 46 57
90.926 -63.176 218.17 41 45 54
92.913 -63.95 220.33 40 46 55
93.365 -63.451 217.95 39 45 56
95.216 -64.089 219.59 41 45 52
95.315 -63.322 216.26 39 44 53
97.678 -64.344 219.23 0 0 0
98.679 -64.288 218.39 0 0 0
99.859 -64.369 218.03 0 0 0
101.63 -64.895 219.21 0 0 0
102.78 -64.937 218.7 0 0 0
103.9 -64.963 218.12 0 0 0
104.68 -64.743 216.69 0 0 0
107.49 -65.975 220.27 0 0 0
107.89 -65.475 217.87 0 0 0
-69.527 -58.702 190.08 89 101 122
-67.419 -57.928 188.18 93 104 127
-66.443 -57.907 188.82 94 106 132
-66.897 -58.869 192.79 97 109 133
-66.014 -58.922 193.68 96 109 131
-63.253 -57.652 190.05 101 114 142
-61.425 -57.017 188.56 102 113 141
-60.914 -57.317 190.28 105 113 139
-59.253 -56.784 189.11 70 76 64
-58.09 -56.605 189.16 89 86 92
-56.676 -56.235 188.53 101 91 98
-55.226 -55.827 187.75 106 121 150
-56.538 -57.529 194.35 109 122 149
-54.194 -56.432 191.14 113 122 152
-52.9 -56.133 190.72 113 126 153
-52.431 -56.484 192.58 113 125 152
-51.44 -56.423 192.98 114 127 156
-49.941 -55.943 191.88 114 128 154
-48.9 -55.83 192.07 116 127 155
-48.305 -56.091 193.59 108 111 113
-47.453 -56.139 194.34 120 131 160
-45.454 -55.194 191.51 115 130 161
-44.678 -55.297 192.43 120 134 163
-43.628 -55.159 192.48 119 132 159
-42.417 -54.87 191.97 120 135 167
-41.414 -54.764 192.11 123 133 165
-40.481 -54.72 192.46 122 137 164
-39.565 -54.691 192.86 121 136 166
-38.128 -54.159 191.41 117 128 125
-37.571 -54.471 193.04 121 132 159
-36.731 -54.513 193.67 123 134 166
-35.721 -54.383 193.66 122 135 161
-34.533 -54.066 192.96 123 135 166
-33.701 -54.111 193.57 124 137 175
-32.98 -54.276 194.63 125 140 169
-31.937 -54.097 194.4 125 139 166
-30.881 -53.898 194.08 124 137 169
-29.978 -53.864 194.37 126 136 165
-29.116 -53.876 194.82 123 137 167
-28.044 -53.642 194.34 124 142 166
-27.055 -53.499 194.2 126 141 168
-26.378 -53.73 195.45 126 140 165
-25.328 -53.507 194.98 125 138 171
-24.474 -53.523 195.41 125 137 172
-23.551 -53.451 195.49 124 139 170
-22.614 -53.358 195.49 124 136 166
-21.681 -53.266 195.47 125 139 168
-20.693 -53.093 195.15 123 136 163
-20.003 -53.335 196.4 122 137 160
-18.913 -53.009 195.47 121 132 158
-18.123 -53.113 196.18 118 126 138
-17.068 -52.819 195.35 74 80 95
-16.283 -52.931 196.07 76 112 141
-15.448 -52.971 196.51 118 134 159
-14.559 -52.923 196.6 120 133 157
-13.685 -52.898 196.78 121 134 161
-12.829 -52.903 197.06 121 133 162
-11.968 -52.902 197.31 121 133 165
-11.101 -52.886 197.5 119 131 155
-10.168 -52.747 197.2 120 132 158
-9.3667 -52.858 197.86 119 129 155
-8.4828 -52.809 197.9 117 131 155
-7.7085 -52.987 198.81 119 132 155
-6.7004 -52.669 197.78 117 127 156
-5.9259 -52.856 198.72 114 130 152
-5.0893 -52.912 199.13 115 126 152
-4.1198 -52.647 198.29 117 126 151
-3.2478 -52.61 198.33 115 126 150
-2.4018 -52.639 198.62 109 123 144
-1.5522 -52.662 198.88 112 121 141
-0.68698 -52.641 198.96 109 128 144
0.24144 -52.425 198.26 114 124 149
1.0078 -52.712 199.54 111 123 142
1.8135 -52.899 200.42 111 121 149
2.7653 -52.575 199.28 107 120 143
3.6107 -52.624 199.6 108 121 143
4.4367 -52.761 200.26 107 119 140
5.3245 -52.644 199.91 106 119 144
6.1979 -52.578 199.76 108 118 143
6.9984 -52.885 201.08 105 117 140
7.8776 -52.8 200.83 105 115 138
8.7552 -52.707 200.56 102 118 139
9.6115 -52.747 200.79 103 115 136
10.476 -52.729 200.8 101 114 132
11.335 -52.77 201.03 49 37 29
12.198 -52.775 201.11 56 40 28
13.062 -52.766 201.13 53 43 26
13.865 -53.856 205.49 40 44 48
14.752 -53.733 205.04 44 47 53
15.623 -54.148 206.72 59 65 73
16.513 -53.902 205.78 76 83 92
17.399 -54.101 206.58 82 88 104
18.279 -53.849 205.6 82 91 105
19.161 -53.795 205.39 82 90 104
20.054 -53.967 206.07 75 86 104
20.965 -54.291 207.35 82 91 107
21.843 -54.145 206.76 83 91 104
22.718 -54.014 206.22 81 89 105
23.658 -54.42 207.8 81 90 102
24.532 -54.276 207.2 77 87 101
25.434 -54.336 207.39 78 87 101
26.354 -54.484 207.93 77 86 98
27.178 -54.109 206.39 76 86 101
28.067 -54.106 206.32 76 84 98
29.051 -54.51 207.85 76 84 99
29.957 -54.545 207.91 73 84 95
30.844 -54.5 207.65 74 83 96
31.793 -54.681 208.27 70 81 97
32.712 -54.74 208.41 73 82 92
33.547 -54.523 207.45 72 80 92
34.559 -54.867 208.69 70 78 94
35.491 -54.943 208.87 71 75 93
36.595 -55.485 210.88 70 77 89
37.17 -54.587 207.21 64 75 85
38.293 -55.145 209.26 67 74 86
39.147 -55.006 208.56 66 74 85
40.002 -54.882 207.92 67 73 85
41.122 -55.355 209.61 64 74 83
42.038 -55.357 209.44 63 71 83
42.945 -55.337 209.19 61 70 82
44.182 -55.981 211.52 62 71 82
44.927 -55.628 209.94 61 71 78
46.057 -56.019 211.26 62 68 80
46.852 -55.777 210.1 63 68 80
47.66 -55.572 209.08 59 67 75
48.807 -55.958 210.36 60 68 73
49.938 -56.295 211.44 56 65 74
50.877 -56.304 211.23 58 66 77
51.87 -56.395 211.32 56 64 74
52.908 -56.552 211.67 58 63 73
53.876 -56.593 211.56 54 63 74
54.885 -56.694 211.67 55 62 74
55.822 -56.685 211.35 56 62 71
56.801 -56.736 211.25 55 61 72
57.735 -56.722 210.89 53 62 71
59.073 -57.245 212.59 52 61 67
60.232 -57.512 213.28 54 57 66
61.106 -57.406 212.54 52 60 67
62.593 -58.064 214.72 52 58 66
63.276 -57.717 213.04 51 56 68
64.022 -57.459 211.69 46 55 65
65.164 -57.672 212.14 49 53 64
66.32 -57.894 212.6 46 45 61
67.342 -57.955 212.45 48 54 64
69.222 -58.961 215.86 34 36 56
69.326 -58.006 211.83 46 53 61
71.35 -59.126 215.65 45 52 60
72.324 -59.11 215.15 42 44 59
73.66 -59.465 216.04 47 52 60
74.349 -59.154 214.43 46 51 59
75.715 -59.526 215.36 33 46 56
76.016 -58.846 212.35 44 50 58
78.075 -59.873 215.7 44 51 58
78.974 -59.773 214.84 44 50 57
80.384 -60.15 215.74 42 50 55
82.192 -60.877 217.92 44 50 57
81.874 -59.671 212.94 40 47 55
84.291 -60.922 217.02 44 48 57
86.207 -61.698 219.33 38 46 58
87.076 -61.551 218.23 45 47 55
87.35 -60.904 215.3 41 46 57
89.455 -61.804 218.01 39 46 56
90.803 -62.054 218.34 41 46 52
92.512 -62.59 219.69 39 44 56
91.084 -60.6 211.88 41 47 55
95.165 -63.013 219.99 40 46 55
95.989 -62.823 218.68 39 45 56
97.882 -63.46 220.33 0 0 0
98.639 -63.217 218.82 0 0 0
99.598 -63.132 217.87 0 0 0
100.47 -62.986 216.69 0 0 0
101.64 -63.058 216.29 0 0 0
103.72 -63.779 218.18 0 0 0
105.37 -64.183 218.93 0 0 0
107.75 -65.085 221.42 0 0 0
111.18 -66.7 226.38 0 0 0
