47.406 32.625 114.12 67 64 68
48.119 32.82 114.49 64 62 72
48.915 33.097 115.14 65 66 71
49.551 33.196 115.16 67 65 72
50.309 33.418 115.6 65 63 70
51.02 33.585 115.83 63 64 68
51.703 33.72 115.95 0 0 0
52.35 33.815 115.93 0 0 0
53.11 34.017 116.26 0 0 0
54.281 34.606 117.89 0 0 0
54.741 34.508 117.18 0 0 0
55.498 34.69 117.41 0 0 0
56.379 34.979 118 0 0 0
57.143 35.155 118.19 0 0 0
57.3 34.786 116.56 0 0 0
58.227 35.104 117.21 0 0 0
58.993 35.274 117.35 0 0 0
60.017 35.66 118.2 0 0 0
61.627 36.529 120.62 0 0 0
62.057 36.395 119.74 0 0 0
62.614 36.37 119.2 0 0 0
63.344 36.486 119.13 0 0 0
64.256 36.744 119.5 0 0 0
64.753 36.669 118.79 0 0 0
65.633 36.895 119.05 0 0 0
67.304 37.726 121.23 0 0 0
73.835 42.24 135.09 0 0 0
78.397 45.167 143.81 0 0 0
-32.427 33.021 102.55 0 0 0
-30.08 31.751 99.063 31 25 18
-29.77 31.898 99.951 33 26 18
-29.301 31.934 100.5 31 26 18
-27.968 31.345 99.075 31 25 18
-27.908 31.677 100.54 31 25 17
-26.634 31.114 99.177 34 25 18
-26.453 31.361 100.37 43 30 23
-26.761 31.985 102.76 57 39 26
-28.166 33.47 107.93 0 0 0
-28.253 33.963 109.94 101 70 47
-27.941 34.154 110.98 116 79 54
-27.779 34.471 112.42 114 75 52
-27.596 34.778 113.84 114 76 53
-27.088 34.827 114.42 115 77 55
-26.379 34.711 114.45 119 75 54
-25.793 34.695 114.81 120 76 54
-25.859 35.235 116.98 116 82 56
-24.615 34.657 115.47 118 78 59
-24.315 34.891 116.63 121 81 56
-23.47 34.647 116.2 121 78 58
-22.917 34.659 116.61 119 80 59
-22.238 34.557 116.63 122 80 57
-21.52 34.415 116.51 122 81 56
-20.868 34.331 116.58 119 79 55
-20.108 34.142 116.28 118 77 53
-18.756 33.373 114.01 117 75 54
-17.033 32.213 110.39 126 83 61
-16.288 31.997 109.96 134 89 68
-15.72 31.953 110.1 132 89 69
-15.162 31.918 110.27 132 89 66
-14.504 31.778 110.07 133 90 70
-14.073 31.875 110.68 137 93 67
-13.625 31.957 111.23 138 93 70
-12.727 31.543 110.07 138 92 72
-12.347 31.7 110.86 135 92 69
-11.773 31.637 110.9 132 88 66
-11.173 31.543 110.82 131 91 64
-10.631 31.515 110.96 126 87 62
-10.191 31.609 111.52 120 83 55
-9.5453 31.453 111.2 114 79 58
-9.0082 31.427 111.33 101 72 57
-8.4035 31.313 111.14 94 63 51
-7.8093 31.208 110.98 78 50 44
-7.225 31.112 110.85 70 47 42
-6.5974 30.953 110.48 87 65 46
-6.1651 31.059 111.05 92 68 49
-5.5614 30.925 110.76 106 86 68
-5.0722 30.953 111.04 109 93 77
-4.4488 30.78 110.6 110 96 86
-3.9359 30.769 110.73 109 98 81
-3.4543 30.807 111.03 106 99 89
-2.9224 30.765 111.04 105 91 88
-2.3873 30.716 111.01 100 89 82
-1.859 30.675 111.02 102 86 77
-1.3919 30.739 111.39 104 91 72
-0.88749 30.74 111.53 105 91 74
-0.31009 30.605 111.18 107 92 79
0.17886 30.631 111.41 106 91 81
0.72107 30.553 111.25 109 91 80
1.2054 30.589 111.5 108 91 83
1.7552 30.488 111.25 108 95 83
2.2206 30.565 111.64 106 93 81
2.7556 30.49 111.47 107 92 84
3.2433 30.519 111.68 104 92 84
3.7515 30.501 111.72 103 91 80
4.3286 30.308 111.11 102 90 83
4.7897 30.403 111.54 102 91 81
5.2857 30.411 111.65 101 90 77
5.8011 30.363 111.56 104 89 84
6.2669 30.46 111.98 102 90 79
6.7634 30.469 112.09 101 89 78
7.2865 30.391 111.87 101 88 79
7.7818 30.401 111.97 100 88 79
8.2923 30.357 111.86 99 89 78
8.7646 30.456 112.28 98 85 77
9.2666 30.444 112.28 98 86 79
9.1842 33.041 121.8 35 27 21
9.3278 34.945 128.79 38 25 19
9.756 35.681 131.52 36 24 16
10.356 35.576 131.17 36 25 19
10.946 35.511 130.97 37 25 17
11.551 35.327 130.32 89 75 61
12.121 35.366 130.49 33 21 16
12.717 35.192 129.87 34 21 15
13.306 35.026 129.28 34 23 15
13.832 35.567 131.26 47 32 22
14.412 35.545 131.19 35 22 15
15.012 35.127 129.66 33 21 15
15.569 35.551 131.2 34 21 15
16.152 35.292 130.24 36 21 15
16.726 35.281 130.19 36 24 16
17.302 35.389 130.56 41 25 18
17.88 35.49 130.9 42 26 17
18.456 35.472 130.81 45 30 21
19.022 35.28 130.07 47 32 21
19.626 35.685 131.51 51 32 24
20.172 35.311 130.1 55 36 25
20.798 35.804 131.85 55 35 26
21.387 35.861 132.01 57 38 26
21.958 35.783 131.66 61 39 27
22.537 35.77 131.55 63 42 29
23.123 35.797 131.58 66 43 27
23.704 35.8 131.52 70 45 32
24.195 35.35 129.8 70 47 34
24.453 33.895 124.43 72 46 35
24.777 32.918 120.8 76 63 63
25.28 32.787 120.24 109 100 103
25.663 32.217 118.08 116 109 117
26.081 31.839 116.62 116 110 121
26.575 31.757 116.22 118 112 122
26.98 31.395 114.82 120 113 128
27.339 30.93 113.03 120 113 130
27.532 30.024 109.65 120 117 129
27.818 29.454 107.49 89 86 98
28.307 29.477 107.46 74 76 85
28.901 29.767 108.39 79 79 88
29.383 29.759 108.24 61 66 75
29.943 29.938 108.76 76 73 82
30.4 29.867 108.37 74 75 87
30.928 29.959 108.57 75 74 82
31.47 30.074 108.84 55 57 66
31.969 30.094 108.77 59 61 74
32.486 30.147 108.81 58 64 75
33.095 30.378 109.48 62 66 74
33.605 30.408 109.43 55 58 71
34.156 30.511 109.63 57 62 70
34.661 30.526 109.51 60 62 71
35.292 30.761 110.17 63 67 79
35.802 30.777 110.05 35 35 51
36.352 30.859 110.15 42 35 38
37.031 31.145 110.97 64 64 79
37.538 31.147 110.78 71 70 76
38.173 31.345 111.28 73 70 79
38.706 31.382 111.2 74 73 80
39.257 31.443 111.2 72 70 76
39.965 31.726 111.97 71 70 76
40.519 31.781 111.93 70 70 77
41.093 31.861 111.98 72 68 77
41.663 31.934 112 71 66 75
42.349 32.155 112.52 71 67 77
42.864 32.148 112.25 69 68 77
43.666 32.503 113.21 70 69 78
44.327 32.669 113.52 69 69 78
44.925 32.755 113.55 68 67 70
45.597 32.925 113.85 69 68 74
46.133 32.93 113.59 67 64 71
46.979 33.291 114.53 69 66 72
47.618 33.405 114.62 66 62 69
48.067 33.306 113.98 64 64 70
49.015 33.753 115.18 64 62 66
49.591 33.788 114.98 64 62 66
50.31 33.973 115.27 63 58 59
51.213 34.341 116.18 60 55 58
51.925 34.504 116.38 0 0 0
52.476 34.501 116.02 0 0 0
52.986 34.457 115.52 0 0 0
54.112 35.014 117 0 0 0
54.752 35.089 116.88 0 0 0
55.288 35.065 116.42 0 0 0
55.86 35.074 116.06 0 0 0
56.716 35.344 116.56 0 0 0
57.6 35.632 117.1 0 0 0
57.531 35.064 114.84 0 0 0
58.765 35.657 116.35 0 0 0
59.641 35.922 116.79 0 0 0
60.12 35.843 116.11 0 0 0
61.519 36.542 117.92 0 0 0
61.437 35.989 115.71 0 0 0
63.481 37.2 119.12 0 0 0
64.06 37.191 118.64 0 0 0
65.465 37.845 120.24 0 0 0
68.269 39.593 125.26 0 0 0
78.872 47.41 149.25 0 0 0
90.546 55.87 175.06 0 0 0
103.72 65.282 203.61 0 0 0
-38.446 37.811 115.07 0 0 0
-32.773 34.196 104.57 0 0 0
-31.38 33.585 103.16 0 0 0
-29.051 32.279 99.603 0 0 0
-28.339 32.136 99.587 0 0 0
-27.298 31.745 98.795 0 0 0
-26.622 31.619 98.819 32 26 18
-25.872 31.434 98.65 33 26 20
-25.636 31.643 99.703 33 27 18
-25.36 31.826 100.67 34 26 19
-25.518 32.357 102.75 36 27 20
-25.648 32.878 104.8 44 32 23
-26.815 34.255 109.57 0 0 0
-26.657 34.578 111.01 87 56 37
-25.563 34.13 109.99 117 78 53
-26.058 35.01 113.21 0 0 0
-25.684 35.172 114.13 123 81 58
-25.159 35.207 114.64 122 81 58
-24.634 35.243 115.15 119 80 56
-23.758 34.968 114.64 119 80 57
-23.73 35.45 116.59 120 78 57
-22.971 35.278 116.41 118 77 54
-22.193 35.082 116.13 118 75 56
-21.687 35.138 116.67 123 79 56
-20.352 34.401 114.59 119 80 58
-19.694 34.301 114.59 122 83 58
-18.619 33.785 113.21 122 82 59
-17.062 32.772 110.15 131 90 66
-16.357 32.593 109.86 136 90 69
-15.595 32.349 109.34 138 91 71
-15.181 32.463 110.01 141 95 72
-14.725 32.536 110.54 141 92 72
-14 32.319 110.09 140 96 73
-13.299 32.121 109.69 139 94 71
-12.759 32.097 109.87 137 93 68
-12.436 32.322 110.89 140 94 70
-11.569 31.92 109.77 135 91 73
-11.175 32.064 110.51 137 91 69
-10.646 32.051 110.7 135 91 68
-10.146 32.072 111.01 134 91 69
-9.5338 31.955 110.83 135 92 66
-9.0737 32.027 111.3 136 92 65
-8.4361 31.869 110.98 133 92 68
-7.8533 31.779 110.88 130 87 64
-7.2619 31.673 110.71 127 87 64
-6.9921 32.01 112.08 131 87 66
-6.3727 31.864 111.77 124 84 57
-5.8034 31.785 111.68 122 83 58
-5.2372 31.706 111.59 109 77 57
-4.5722 31.473 110.95 97 67 51
-4.1555 31.617 111.63 88 62 52
-3.4493 31.304 110.7 85 56 48
-2.9373 31.293 110.82 74 51 46
-2.3969 31.235 110.77 81 54 43
-1.9107 31.267 111.03 84 55 45
-1.4147 31.283 111.24 99 75 56
-0.86511 31.202 111.09 107 90 71
-0.33147 31.146 111.03 105 94 72
0.11619 31.254 111.54 113 97 87
0.68883 31.118 111.19 111 94 84
1.2608 30.974 110.8 110 100 83
1.7098 31.084 111.31 111 99 90
2.2135 31.08 111.4 101 91 87
2.7238 31.06 111.44 104 89 82
3.2298 31.049 111.5 101 83 78
3.7517 30.998 111.42 99 82 74
4.2686 30.956 111.36 98 84 76
4.796 30.882 111.19 99 87 76
5.2479 31.012 111.73 101 88 77
5.7231 31.085 112.08 101 88 79
6.2776 30.923 111.58 101 88 81
6.7812 30.908 111.59 101 86 80
7.2527 30.999 111.98 99 89 82
7.7474 31.017 112.11 100 85 81
8.2706 30.931 111.86 100 88 78
8.738 31.056 112.36 100 86 76
9.2243 31.117 112.63 94 78 73
9.1884 33.556 121.41 38 28 22
9.3179 35.557 128.62 35 24 19
9.9025 35.481 128.4 35 23 18
10.462 35.535 128.63 35 22 15
10.954 36.026 130.42 36 23 18
11.514 36.147 130.88 80 65 48
12.155 35.661 129.16 30 20 13
12.731 35.621 129.03 31 20 14
13.322 35.412 128.3 34 20 14
13.861 35.768 129.59 32 19 15
14.43 35.835 129.83 34 19 13
15.004 35.821 129.78 34 21 13
15.579 35.784 129.64 33 23 15
16.155 35.642 129.12 35 24 15
16.725 35.768 129.56 37 24 17
17.295 35.571 128.83 40 26 17
17.873 35.859 129.84 44 29 18
18.444 35.792 129.57 47 29 22
19.016 35.791 129.53 51 33 22
19.573 35.572 128.7 53 36 25
20.184 36.041 130.34 55 36 26
20.73 35.758 129.28 59 39 28
21.334 36.018 130.16 63 41 28
21.889 35.865 129.55 64 42 30
22.434 35.681 128.83 66 49 33
23.04 35.895 129.53 71 46 36
23.594 35.785 129.06 72 50 33
24.115 35.529 128.07 75 50 35
24.391 34.163 123.11 80 53 38
24.808 33.599 121.02 79 55 45
25.266 33.271 119.76 106 98 101
25.675 32.797 117.98 116 106 117
26.099 32.429 116.58 117 113 121
26.582 32.305 116.04 119 113 122
26.977 31.905 114.52 122 113 120
27.381 31.57 113.23 120 116 127
27.513 30.461 109.19 119 115 131
27.846 30.02 107.52 90 84 97
28.379 30.159 107.89 78 78 84
28.954 30.396 108.62 82 80 86
29.425 30.356 108.35 66 65 76
30.008 30.586 109.04 73 74 81
30.432 30.433 108.37 77 81 87
30.928 30.452 108.3 63 53 59
31.478 30.587 108.64 67 70 80
31.982 30.615 108.59 55 44 48
32.728 31.136 110.27 59 61 77
33.142 30.969 109.53 45 49 65
33.709 31.107 109.85 61 64 79
34.197 31.089 109.62 46 41 43
34.767 31.219 109.91 61 61 64
35.327 31.326 110.1 53 47 48
35.914 31.474 110.44 24 23 28
36.428 31.492 110.31 31 24 32
37.044 31.675 110.75 71 69 77
37.66 31.851 111.17 73 71 80
38.198 31.896 111.12 73 72 78
38.846 32.107 111.63 72 69 81
39.261 31.963 110.92 73 69 82
39.952 32.225 111.6 71 72 78
40.558 32.356 111.82 73 71 80
41.205 32.538 112.21 71 71 78
41.846 32.703 112.54 71 71 79
42.41 32.762 112.49 71 68 76
42.997 32.847 112.53 72 69 76
43.56 32.899 112.45 71 68 73
44.359 33.244 113.35 70 66 74
45.054 33.448 113.77 69 66 74
45.715 33.604 114.01 67 65 67
46.282 33.643 113.86 66 63 67
47.146 34.027 114.85 65 60 65
48.008 34.395 115.78 61 54 55
48.569 34.412 115.53 56 46 50
49.13 34.43 115.27 36 23 24
49.755 34.517 115.24 34 27 26
50.375 34.595 115.17 44 32 30
51.175 34.86 115.71 56 40 34
51.927 35.068 116.05 0 0 0
52.362 34.947 115.3 0 0 0
53.166 35.198 115.76 0 0 0
53.72 35.197 115.4 0 0 0
54.598 35.51 116.04 0 0 0
55.318 35.664 116.16 0 0 0
55.646 35.443 115.06 0 0 0
56.481 35.7 115.5 0 0 0
57.175 35.822 115.5 0 0 0
57.637 35.73 114.8 0 0 0
58.375 35.888 114.89 0 0 0
59.108 36.037 114.95 0 0 0
60.43 36.694 116.6 0 0 0
60.931 36.63 115.97 0 0 0
62.681 37.627 118.66 0 0 0
63.36 37.703 118.44 0 0 0
67.319 40.484 126.64 0 0 0
75.834 46.913 146.07 0 0 0
92.168 59.483 184.31 0 0 0
97.916 63.328 195.41 0 0 0
101.75 65.581 201.53 0 0 0
103.37 66.054 202.16 0 0 0
-65.385 57.72 172.03 0 0 0
-56.289 51.781 155.05 0 0 0
-38.658 39.46 118.79 0 0 0
-31.435 34.569 104.58 0 0 0
-28.606 32.858 99.854 0 0 0
-27.758 32.609 99.517 0 0 0
-26.667 32.168 98.589 0 0 0
-26.275 32.259 99.273 0 0 0
-25.338 31.924 98.648 0 0 0
-25.263 32.266 100.1 0 0 0
-25.145 32.581 101.47 0 0 0
-23.464 31.634 98.924 33 26 20
-22.906 31.587 99.158 33 25 22
-22.597 31.747 100.03 34 26 19
-23.597 33.019 104.4 0 0 0
-23.951 33.771 107.15 52 32 25
-24.053 34.324 109.28 73 50 33
-24.253 34.979 111.74 103 69 48
-24.096 35.333 113.25 113 78 55
-23.664 35.448 114 118 81 57
-23.349 35.673 115.1 122 80 56
-22.77 35.661 115.43 122 82 57
-21.841 35.317 114.69 121 81 55
-20.87 34.923 113.77 121 79 57
-20.473 35.075 114.61 120 77 54
-19.668 34.829 114.15 118 81 55
-18.997 34.711 114.1 118 80 55
-17.1 33.341 109.94 126 84 61
-16.337 33.099 109.45 130 88 67
-15.615 32.893 109.07 135 91 71
-15.027 32.823 109.13 138 98 73
-14.543 32.864 109.55 138 98 71
-13.935 32.77 109.52 136 95 74
-13.287 32.627 109.31 139 97 74
-12.71 32.561 109.36 143 99 74
-12.064 32.411 109.11 143 95 75
-11.565 32.431 109.43 144 95 72
-11.309 32.744 110.73 143 97 68
-10.676 32.605 110.5 141 98 73
-10.155 32.602 110.73 140 96 70
-9.3721 32.264 109.82 144 100 72
-9.0052 32.455 110.68 142 100 70
-8.419 32.361 110.58 141 96 70
-8.0825 32.603 111.61 138 91 69
-7.3897 32.361 111 135 89 69
-6.9289 32.437 111.46 135 88 65
-6.2589 32.214 110.89 137 89 67
-5.6977 32.141 110.83 134 88 68
-5.2273 32.202 111.23 134 87 65
-4.6266 32.065 110.94 135 91 65
-4.2191 32.227 111.66 133 92 64
-3.6846 32.191 111.71 130 87 67
-3.1615 32.172 111.81 128 88 65
-2.6443 32.161 111.93 127 83 64
-2.1609 32.21 112.25 122 82 61
-1.5021 31.945 111.48 119 81 59
-1.1282 32.193 112.48 110 77 57
-0.53933 32.045 112.11 100 70 53
-0.030971 32.046 112.25 94 68 54
0.56661 31.867 111.75 92 60 50
1.0755 31.861 111.85 85 58 46
1.7059 31.592 111.03 72 49 41
2.1987 31.613 111.22 70 46 41
2.6704 31.683 111.57 68 49 40
3.2058 31.606 111.41 75 52 44
3.7451 31.513 111.18 83 58 46
4.2177 31.585 111.53 97 75 60
4.7411 31.526 111.41 97 81 62
5.239 31.534 111.53 100 85 66
5.7313 31.559 111.69 104 89 78
6.2348 31.551 111.74 102 92 77
6.7607 31.47 111.53 105 90 80
7.2573 31.48 111.63 105 98 83
7.7769 31.408 111.44 102 92 82
8.2422 31.534 111.94 99 89 78
8.7437 31.529 111.98 101 93 83
9.0652 32.298 114.74 22 15 12
9.0712 34.629 122.98 42 29 21
9.3078 36.171 128.45 41 28 20
9.8793 36.168 128.49 41 29 23
10.459 36.116 128.34 98 83 67
11.114 35.572 126.46 30 18 15
11.603 36.088 128.31 28 18 15
12.141 36.334 129.19 31 21 15
12.752 35.989 128 33 21 14
13.289 36.318 129.17 32 22 15
13.905 35.769 127.24 36 24 18
14.425 36.453 129.66 62 43 32
15.016 36.127 128.51 41 27 18
15.595 35.834 127.47 43 29 22
16.156 36.076 128.31 46 30 21
16.724 36.187 128.69 47 32 24
17.293 36.044 128.17 49 33 24
17.866 36.246 128.86 52 35 25
18.427 36.014 128.01 58 38 25
18.997 36.062 128.14 60 41 30
19.568 36.102 128.25 64 41 29
20.145 36.2 128.55 67 44 30
20.699 36.044 127.95 70 44 32
21.268 36.054 127.93 73 50 33
21.785 35.676 126.55 76 50 38
22.435 36.271 128.57 108 75 56
22.924 35.772 126.75 78 52 36
23.48 35.734 126.55 84 55 38
23.964 35.333 125.06 86 57 40
24.401 34.769 123 90 58 44
24.807 34.138 120.71 106 74 59
25.212 33.59 118.71 94 66 57
25.661 33.273 117.51 102 88 82
26.135 33.089 116.77 120 113 118
26.571 32.789 115.63 119 112 119
26.99 32.465 114.39 119 115 123
27.316 31.876 112.24 120 115 124
27.472 30.831 108.49 121 116 131
27.901 30.665 107.8 88 84 93
28.454 30.855 108.35 81 76 85
28.976 30.947 108.55 83 79 84
29.422 30.84 108.06 73 70 80
29.92 30.867 108.03 79 76 84
30.447 30.96 108.22 81 80 90
31.086 31.304 109.27 80 78 88
31.626 31.408 109.49 24 27 39
32.131 31.429 109.41 23 21 28
32.633 31.442 109.31 39 35 44
33.214 31.614 109.75 25 23 31
33.737 31.662 109.75 65 61 71
34.292 31.769 109.95 32 26 34
34.773 31.735 109.66 46 35 39
35.32 31.819 109.77 34 35 49
35.955 32.054 110.39 72 64 64
36.539 32.189 110.66 26 20 31
37.057 32.208 110.53 74 72 79
37.695 32.42 111.06 73 70 75
38.239 32.474 111.04 70 69 79
38.954 32.79 111.89 73 71 73
39.293 32.526 110.78 74 69 78
40.094 32.953 112 74 68 78
40.645 33.002 111.94 74 71 80
41.204 33.06 111.9 70 71 79
41.888 33.288 112.42 73 70 75
42.454 33.347 112.38 71 67 68
43.029 33.417 112.36 66 63 67
43.671 33.572 112.61 64 56 62
44.586 34.067 113.99 60 48 48
45.286 34.275 114.4 44 29 32
46.09 34.603 115.21 32 25 23
46.488 34.431 114.35 41 31 29
47.27 34.719 115 59 42 35
47.877 34.795 114.95 61 46 38
48.481 34.864 114.86 66 49 39
49.079 34.925 114.75 69 50 43
49.688 34.995 114.66 71 50 43
50.315 35.084 114.61 71 51 45
51.098 35.336 115.1 73 52 45
51.66 35.349 114.8 0 0 0
52.29 35.432 114.71 0 0 0
53.017 35.61 114.93 0 0 0
53.508 35.548 114.37 0 0 0
54.313 35.797 114.8 0 0 0
54.441 35.382 113.1 0 0 0
55.622 35.988 114.64 0 0 0
55.805 35.633 113.13 0 0 0
56.703 35.956 113.76 0 0 0
56.798 35.531 112.03 0 0 0
58.734 36.787 115.55 0 0 0
59.365 36.843 115.31 0 0 0
60.315 37.179 115.92 0 0 0
60.984 37.263 115.75 0 0 0
62.553 38.118 117.95 0 0 0
63.829 38.703 119.29 0 0 0
87.647 58.171 178.3 0 0 0
95.692 64.1 195.65 0 0 0
99.585 66.489 202.12 0 0 0
102.61 68.119 206.25 0 0 0
100.76 65.82 198.52 0 0 0
104.25 67.787 203.62 0 0 0
-71.155 62.827 183.7 0 0 0
-68.44 61.535 180.7 0 0 0
-66.48 60.776 179.24 0 0 0
-52.986 51.327 152.09 0 0 0
-31.816 35.825 106.75 0 0 0
-27.965 33.289 99.65 0 0 0
-26.951 32.904 98.912 0 0 0
-26.467 32.925 99.385 0 0 0
-25.76 32.77 99.323 0 0 0
-24.861 32.457 98.775 0 0 0
-24.026 32.189 98.351 0 0 0
-23.594 32.247 98.913 0 0 0
-23.003 32.173 99.068 0 0 0
-22.455 32.135 99.326 0 0 0
-21.93 32.115 99.634 0 0 0
-20.832 31.596 98.395 0 0 0
-20.803 32.006 100.02 0 0 0
-20.916 32.554 102.08 38 28 20
-21.704 33.728 106.1 0 0 0
-22.434 34.882 110.08 0 0 0
-22.25 35.217 111.5 76 54 34
-21.743 35.258 111.99 111 83 57
-21.652 35.697 113.74 118 86 67
-21.333 35.928 114.83 118 79 53
-20.395 35.555 114 121 81 59
-19.624 35.339 113.65 122 79 55
-18.523 34.779 112.19 123 81 59
-17.148 33.921 109.75 131 89 66
-16.474 33.77 109.57 137 98 71
-15.451 33.242 108.17 141 98 73
-15.229 33.565 109.5 139 94 73
-14.547 33.392 109.23 135 96 71
-13.817 33.159 108.75 136 95 72
-13.238 33.091 108.8 136 94 70
-12.67 33.032 108.87 134 93 72
-12.067 32.931 108.8 136 91 72
-11.611 33.001 109.28 138 93 69
-10.992 32.877 109.12 139 92 71
-10.652 33.094 110.07 140 96 70
-9.9167 32.817 109.4 145 99 78
-9.3286 32.721 109.31 141 98 72
-8.9241 32.863 110 144 99 74
-8.4528 32.921 110.41 142 102 73
-7.8816 32.844 110.37 142 97 71
-7.3315 32.793 110.41 143 99 72
-6.7717 32.726 110.38 143 96 69
-6.2837 32.761 110.7 141 94 71
-5.7049 32.662 110.55 143 93 74
-5.1132 32.538 110.32 141 96 71
-4.644 32.601 110.71 143 95 72
-4.1943 32.698 111.21 142 93 73
-3.6705 32.678 111.31 138 95 71
-3.0183 32.439 110.67 136 93 67
-2.4757 32.378 110.62 135 94 72
-2.1903 32.773 112.11 135 89 70
-1.4157 32.292 110.63 134 88 67
-0.97303 32.41 111.18 131 89 65
-0.42748 32.335 111.06 128 88 65
0.06075 32.37 111.31 130 90 67
0.5986 32.305 111.22 126 85 64
1.1578 32.19 110.95 129 87 63
1.6139 32.294 111.42 126 83 62
2.1466 32.231 111.32 126 83 59
2.5453 32.479 112.28 123 84 60
3.0542 32.476 112.37 120 85 61
3.5661 32.465 112.44 116 78 54
4.071 32.471 112.55 112 77 56
4.6064 32.394 112.38 112 76 55
5.0923 32.452 112.67 101 71 52
5.6273 32.368 112.46 99 66 53
6.213 32.117 111.67 93 64 49
6.6966 32.177 111.95 84 58 48
7.1287 32.421 112.86 83 57 46
7.6847 32.239 112.3 78 55 43
8.2135 32.141 112.02 72 50 38
8.5392 32.864 114.57 42 28 23
8.7277 34.28 119.52 54 39 31
9.0304 35.362 123.31 61 44 34
9.4502 36.019 125.62 62 43 33
9.9663 36.258 126.49 53 36 32
10.533 36.238 126.46 41 27 26
11.094 36.253 126.55 40 27 24
11.634 36.419 127.15 42 28 23
12.194 36.468 127.34 47 32 26
12.787 36.226 126.52 52 37 27
13.359 36.126 126.19 59 38 29
13.894 36.461 127.36 58 39 29
14.472 36.263 126.68 61 39 30
15.017 36.641 127.99 62 42 29
15.584 36.711 128.22 64 42 30
16.159 36.389 127.1 66 43 32
16.724 36.443 127.27 64 44 32
17.289 36.423 127.18 66 43 31
17.856 36.512 127.47 69 44 31
18.421 36.468 127.29 71 46 32
18.996 36.633 127.83 69 47 32
19.556 36.524 127.41 72 47 32
20.123 36.532 127.39 73 48 35
20.676 36.398 126.88 77 52 37
21.235 36.357 126.69 77 51 38
21.797 36.342 126.58 82 52 35
22.363 36.36 126.58 83 54 39
22.867 35.995 125.25 85 56 40
23.424 35.989 125.16 88 56 38
23.911 35.624 123.83 90 59 41
24.35 35.075 121.86 93 59 42
24.865 34.946 121.33 105 72 58
25.247 34.271 118.92 115 85 70
25.695 33.941 117.69 111 77 63
26.091 33.451 115.92 81 62 59
26.557 33.264 115.18 122 112 117
26.973 32.926 113.92 122 114 125
27.243 32.151 111.16 121 113 128
27.466 31.308 108.17 116 111 126
27.907 31.172 107.59 85 79 88
28.47 31.392 108.23 80 76 83
29.002 31.51 108.52 77 67 69
29.459 31.427 108.11 77 71 80
29.948 31.429 107.99 81 78 85
30.529 31.651 108.61 82 81 90
31.116 31.873 109.23 84 76 91
31.62 31.894 109.16 29 21 31
32.168 32.009 109.4 51 58 69
32.663 32.005 109.24 52 42 45
33.187 32.062 109.27 35 36 54
33.734 32.161 109.45 39 32 40
34.281 32.253 109.59 35 35 47
34.913 32.499 110.24 69 68 72
35.425 32.516 110.12 64 68 77
35.915 32.491 109.86 72 71 81
36.478 32.595 110.02 73 69 78
37.177 32.921 110.91 76 71 78
37.772 33.06 111.18 72 68 78
38.339 33.15 111.27 74 69 75
38.838 33.129 110.98 70 63 68
39.555 33.442 111.81 69 63 67
40.128 33.525 111.86 66 59 62
40.803 33.755 112.39 59 50 48
41.354 33.797 112.29 46 32 33
42.305 34.398 114.03 33 24 26
42.529 33.979 112.4 41 32 29
43.144 34.101 112.54 52 34 31
44.012 34.551 113.75 64 46 36
44.574 34.589 113.61 69 51 38
45.226 34.741 113.83 72 52 42
45.738 34.712 113.45 75 54 45
46.518 35.012 114.13 75 53 44
47.069 35.028 113.89 76 54 45
47.703 35.14 113.95 77 55 49
48.438 35.365 114.37 77 56 46
49.166 35.575 114.72 78 58 48
49.667 35.525 114.24 78 57 48
50.286 35.606 114.17 76 55 50
50.892 35.671 114.04 0 0 0
51.393 35.623 113.55 0 0 0
52.127 35.82 113.82 0 0 0
52.851 36.001 114.04 0 0 0
53.589 36.192 114.28 0 0 0
53.537 35.584 112.01 0 0 0
54.142 35.644 111.83 0 0 0
54.73 35.687 111.58 0 0 0
55.864 36.251 112.95 0 0 0
56.175 36.022 111.85 0 0 0
58.071 37.279 115.33 0 0 0
57.65 36.37 112.13 0 0 0
59.339 37.4 114.87 0 0 0
60.576 37.999 116.27 0 0 0
62.023 38.769 118.17 0 0 0
64.271 40.217 122.1 0 0 0
86.895 59.192 178.76 0 0 0
98.843 68.606 206.31 0 0 0
100.19 68.879 206.34 0 0 0
100.44 68.234 203.61 0 0 0
102.22 68.855 204.65 0 0 0
99.648 65.943 195.24 0 0 0
103.61 68.334 201.5 0 0 0
-71.123 63.777 183.02 0 0 0
-69.374 63.187 182.1 0 0 0
-70.382 64.665 187.14 0 0 0
-66.033 62.086 180.45 0 0 0
-41.207 43.639 127.5 0 0 0
-30.469 35.769 105.02 0 0 0
-30.722 36.401 107.31 0 0 0
-30.515 36.68 108.58 0 0 0
-26.827 34.149 101.53 0 0 0
-25.936 33.848 101.04 0 0 0
-25 33.503 100.42 0 0 0
-24.523 33.534 100.9 0 0 0
-23.142 32.798 99.08 0 0 0
-22.541 32.715 99.206 0 0 0
-21.964 32.65 99.38 0 0 0
-21.429 32.621 99.658 0 0 0
-20.509 32.246 98.876 0 0 0
-20.021 32.254 99.252 0 0 0
-19.582 32.307 99.76 0 0 0
-19.076 32.299 100.08 0 0 0
-19.495 33.165 103.09 0 0 0
-19.26 33.43 104.25 0 0 0
-19.589 34.249 107.13 0 0 0
-20.016 35.19 110.4 66 42 31
-19.738 35.454 111.56 96 65 45
-19.055 35.313 111.46 114 86 62
-18.505 35.306 111.77 118 88 71
-16.871 34.161 108.48 133 93 68
-16.414 34.235 109.02 134 93 68
-15.682 34.013 108.61 137 94 74
-15.156 34.01 108.9 139 97 72
-14.295 33.633 107.98 137 93 71
-14.037 33.928 109.2 136 92 71
-13.205 33.571 108.33 136 94 71
-12.452 33.293 107.71 140 98 71
-12.129 33.521 108.7 140 98 74
-11.721 33.653 109.38 138 98 72
-10.996 33.396 108.8 139 99 72
-10.471 33.383 109 139 95 74
-9.9736 33.404 109.3 137 95 70
-9.4302 33.367 109.41 138 92 71
-8.7147 33.096 108.75 136 95 69
-8.4054 33.371 109.87 136 94 71
-7.9029 33.387 110.14 136 93 71
-7.3099 33.275 109.98 137 91 71
-6.7623 33.224 110.01 137 95 71
-6.2629 33.242 110.27 141 94 71
-5.6449 33.081 109.93 142 95 75
-5.1867 33.161 110.38 143 97 74
-4.7104 33.216 110.74 138 97 73
-4.2119 33.238 110.99 140 97 70
-3.5699 33.02 110.44 140 97 70
-3.1394 33.154 111.05 146 99 71
-2.4818 32.895 110.34 144 97 73
-2.0358 33.005 110.86 144 97 71
-1.4857 32.927 110.75 145 99 74
-1.001 32.969 111.04 144 103 75
-0.4719 32.927 111.04 142 98 73
-0.02866 33.057 111.61 144 99 73
0.58952 32.828 110.97 142 99 72
1.0463 32.933 111.44 142 93 71
1.6283 32.765 111 143 97 74
2.1199 32.795 111.22 140 96 67
2.6336 32.774 111.26 137 93 66
3.1462 32.753 111.29 134 92 66
3.6646 32.716 111.27 133 95 67
4.153 32.757 111.5 130 90 69
4.6575 32.755 111.59 127 87 68
5.1384 32.822 111.9 124 88 63
5.6406 32.83 112.01 124 83 60
6.1909 32.686 111.6 116 81 60
6.6654 32.78 112 116 79 60
7.1715 32.773 112.04 112 80 59
7.6817 32.75 112.03 110 75 56
8.165 32.829 112.35 109 73 57
8.4708 33.657 115.22 90 60 44
8.8431 34.297 117.45 109 73 58
9.0734 35.703 122.27 89 58 44
9.5846 35.886 122.94 108 73 54
10.077 36.205 124.07 106 69 52
10.571 36.568 125.34 97 65 48
11.106 36.727 125.91 88 61 43
11.681 36.632 125.62 89 57 39
12.246 36.597 125.52 84 55 38
12.778 36.86 126.44 84 54 40
13.353 36.733 126.02 83 53 38
13.906 36.845 126.41 80 52 38
14.483 36.634 125.69 80 51 38
15.045 36.603 125.59 82 52 35
15.6 36.742 126.06 77 51 33
16.164 36.618 125.62 78 48 35
16.723 36.707 125.91 78 51 36
17.285 36.797 126.2 77 49 34
17.851 36.947 126.69 76 50 35
18.417 36.97 126.73 78 49 36
18.976 36.874 126.38 79 50 36
19.535 36.822 126.16 78 51 38
20.137 37.281 127.68 80 51 36
20.65 36.72 125.72 82 52 36
21.194 36.576 125.18 83 54 39
21.76 36.637 125.33 84 55 40
22.31 36.571 125.05 85 55 37
22.872 36.599 125.08 86 55 40
23.421 36.542 124.81 87 55 42
23.865 35.941 122.7 89 57 40
24.269 35.23 120.21 92 62 47
24.821 35.294 120.35 105 72 57
25.241 34.788 118.55 112 80 66
25.73 34.614 117.87 112 81 66
26.13 34.125 116.13 112 81 67
26.599 33.935 115.39 74 52 47
26.902 33.199 112.81 118 111 114
27.233 32.624 110.77 122 112 119
27.503 31.913 108.27 117 111 121
27.922 31.707 107.47 88 81 88
28.561 32.144 108.82 85 79 89
29.009 32.025 108.3 63 56 63
29.509 32.052 108.27 76 75 78
30.071 32.234 108.75 82 75 82
30.615 32.356 109.03 80 77 89
31.107 32.351 108.87 84 75 85
31.656 32.475 109.14 74 72 77
32.146 32.463 108.95 77 73 78
32.725 32.64 109.39 77 72 75
33.214 32.62 109.17 75 70 77
33.78 32.756 109.45 74 72 79
34.315 32.824 109.51 74 69 72
34.898 32.979 109.85 74 67 74
35.466 33.1 110.07 70 67 69
35.996 33.144 110.03 69 64 64
36.571 33.267 110.25 67 54 53
37.298 33.641 111.28 59 44 40
37.969 33.905 111.94 45 28 26
38.627 34.135 112.48 39 30 29
39.051 33.983 111.78 52 36 33
39.729 34.233 112.37 57 41 35
40.306 34.318 112.42 66 48 40
40.786 34.255 111.98 72 50 42
41.559 34.621 112.93 76 54 46
41.993 34.491 112.27 75 56 46
42.806 34.893 113.31 76 56 47
43.094 34.563 112 78 59 46
44.04 35.126 113.54 79 57 49
44.603 35.165 113.39 80 60 49
45.201 35.249 113.39 80 59 49
45.816 35.351 113.43 79 58 51
46.385 35.392 113.27 79 57 50
46.992 35.479 113.25 81 59 53
47.647 35.619 113.39 84 57 51
48.171 35.602 113.03 82 58 53
49.001 35.938 113.77 81 60 51
49.11 35.445 111.9 79 56 50
49.695 35.5 111.75 78 54 45
50.306 35.582 111.68 0 0 0
51.2 35.967 112.54 0 0 0
51.697 35.919 112.05 0 0 0
51.989 35.657 110.89 0 0 0
52.981 36.125 111.98 0 0 0
54.049 36.659 113.25 0 0 0
54.27 36.327 111.86 0 0 0
54.843 36.352 111.57 0 0 0
55.739 36.692 112.22 0 0 0
57.692 38.039 115.91 0 0 0
58.323 38.096 115.68 0 0 0
58.858 38.062 115.16 0 0 0
60.371 38.931 117.35 0 0 0
65.076 42.68 128.13 0 0 0
68.541 45.22 135.22 0 0 0
71.23 47.006 140.01 0 0 0
87.931 61.005 180.87 0 0 0
99.506 70.228 207.35 0 0 0
99.729 69.537 204.52 0 0 0
101.95 70.547 206.68 0 0 0
102.58 70.207 204.88 0 0 0
99.486 66.819 194.24 0 0 0
105.65 71.039 205.66 0 0 0
-70.575 64.34 181.25 0 0 0
-71.191 65.528 185.37 0 0 0
-70.298 65.587 186.31 0 0 0
-68.316 64.803 184.86 0 0 0
-63.658 61.905 177.35 0 0 0
-42.533 45.887 132.1 0 0 0
-40.275 44.625 129.02 0 0 0
-38.045 43.358 125.88 0 0 0
-39.448 45.043 131.28 0 0 0
-39.297 45.478 133.07 0 0 0
-32.094 39.99 117.53 0 0 0
-27.012 36.174 106.78 0 0 0
-23.924 33.981 100.72 0 0 0
-22.732 33.388 99.35 0 0 0
-22.05 33.231 99.257 0 0 0
-21.464 33.157 99.402 0 0 0
-20.692 32.912 99.029 0 0 0
-20.114 32.839 99.163 0 0 0
-19.5 32.731 99.184 0 0 0
-18.909 32.641 99.254 0 0 0
-18.097 32.337 98.666 0 0 0
-17.599 32.33 98.971 0 0 0
-17.293 32.512 99.847 0 0 0
-16.641 32.354 99.68 0 0 0
-16.426 32.635 100.85 0 0 0
-16.696 33.424 103.59 0 0 0
-17.137 34.417 106.97 0 0 0
-16.485 34.278 106.85 0 0 0
-16.035 34.353 107.39 0 0 0
-15.454 34.287 107.48 0 0 0
-14.733 34.063 107.07 131 103 90
-14.285 34.141 107.6 135 97 72
-13.828 34.21 108.1 138 98 74
-13.248 34.139 108.15 138 96 75
-12.738 34.148 108.44 141 97 72
-12.149 34.061 108.43 137 97 69
-11.577 33.993 108.47 140 98 76
-11.035 33.96 108.61 140 98 72
-10.482 33.911 108.7 135 95 72
-9.9843 33.933 109.01 134 94 70
-9.2431 33.631 108.28 137 96 70
-8.8019 33.725 108.8 141 96 70
-8.3267 33.776 109.18 139 97 70
-7.9186 33.924 109.87 140 100 74
-7.3795 33.888 109.97 140 100 74
-6.7474 33.713 109.61 139 98 70
-6.3004 33.811 110.12 140 97 70
-5.6418 33.585 109.58 134 95 72
-5.2554 33.78 110.4 138 94 71
-4.7451 33.783 110.6 134 93 71
-4.2352 33.788 110.79 136 100 72
-3.7102 33.766 110.89 138 98 71
-3.1764 33.728 110.93 137 96 71
-2.4884 33.412 110.06 135 95 71
-1.9855 33.419 110.24 134 95 73
-1.515 33.488 110.61 136 94 70
-1.0249 33.522 110.87 134 93 68
-0.52116 33.531 111.04 138 93 68
0.087873 33.324 110.5 140 95 71
0.58823 33.334 110.66 142 93 69
1.0688 33.389 110.96 138 97 72
1.585 33.366 111.01 138 95 73
2.0744 33.404 111.25 141 96 71
2.6253 33.296 111 137 96 71
3.128 33.301 111.13 137 94 66
3.7134 33.09 110.53 134 94 70
4.1552 33.252 111.17 139 94 69
4.6596 33.251 111.25 136 93 69
5.1521 33.284 111.45 132 94 67
5.6508 33.301 111.59 134 91 67
6.1739 33.241 111.47 130 91 67
6.7027 33.155 111.26 132 89 69
7.1875 33.217 111.53 129 89 62
7.6693 33.296 111.86 128 87 65
8.1793 33.273 111.85 127 87 65
8.5739 33.734 113.44 127 84 63
8.9664 34.264 115.26 105 73 51
9.2543 35.373 119.01 106 74 59
9.6844 35.913 120.86 123 86 64
10.206 36.031 121.3 121 81 61
10.673 36.494 122.88 112 78 55
11.224 36.491 122.91 108 71 53
11.773 36.498 122.96 105 71 53
12.312 36.601 123.33 107 70 47
12.807 37.136 125.13 105 71 49
13.37 37.093 125 102 66 51
13.958 36.714 123.75 101 68 51
14.487 37.113 125.08 103 68 47
15.048 37.072 124.95 102 66 49
15.599 37.291 125.67 102 65 46
16.165 37.053 124.87 100 66 46
16.722 37.195 125.33 96 65 45
17.281 37.113 125.04 95 64 46
17.835 36.955 124.49 96 65 45
18.393 36.987 124.57 96 63 43
18.97 37.348 125.74 93 64 46
19.521 37.2 125.2 94 62 45
20.096 37.38 125.77 97 65 46
20.648 37.277 125.37 95 64 43
21.199 37.191 125.03 92 63 44
21.75 37.132 124.78 95 62 46
22.316 37.186 124.9 93 64 45
22.78 36.583 122.82 98 62 44
23.339 36.629 122.91 94 65 43
23.811 36.209 121.43 96 66 45
24.188 35.373 118.57 102 70 57
24.762 35.568 119.14 112 80 68
25.229 35.27 118.06 117 84 69
25.744 35.206 117.76 120 84 68
26.147 34.718 116.05 120 85 69
26.521 34.178 114.16 118 84 68
26.913 33.751 112.64 78 55 47
27.297 33.341 111.18 104 85 78
27.515 32.445 108.11 118 109 121
27.983 32.383 107.8 88 83 88
28.547 32.601 108.4 86 78 82
29.023 32.558 108.14 49 42 52
29.524 32.586 108.11 79 75 77
30.015 32.588 107.99 79 70 76
30.609 32.843 108.69 79 71 74
31.171 33.004 109.08 75 69 69
31.67 33.008 108.95 72 65 65
32.2 33.083 109.05 69 59 57
32.708 33.105 108.97 57 46 40
33.413 33.54 110.23 43 30 31
34.042 33.793 110.88 40 28 27
34.678 34.046 111.54 37 26 28
35.221 34.107 111.56 45 32 30
35.71 34.064 111.24 52 37 35
36.251 34.118 111.22 61 46 38
36.774 34.138 111.1 70 50 45
37.329 34.211 111.13 78 54 44
38.027 34.523 111.94 77 53 45
38.434 34.342 111.14 78 57 46
39.062 34.524 111.51 76 54 46
39.702 34.715 111.91 79 58 47
40.232 34.731 111.73 79 60 48
40.722 34.685 111.35 82 61 53
41.488 35.048 112.27 83 62 53
42.117 35.199 112.5 84 62 51
42.62 35.165 112.14 84 60 52
43.455 35.593 113.24 84 60 49
43.977 35.579 112.93 84 60 51
44.618 35.725 113.12 86 64 52
45.128 35.694 112.75 87 64 54
45.784 35.852 112.96 88 65 53
45.912 35.34 111.07 0 0 0
46.503 35.418 111.02 0 0 0
47.717 36.249 113.31 0 0 0
47.467 35.308 110.08 0 0 0
48.101 35.434 110.16 0 0 0
48.91 35.758 110.85 0 0 0
49.468 35.786 110.61 0 0 0
50.383 36.212 111.59 0 0 0
50.818 36.098 110.9 0 0 0
51.459 36.211 110.91 0 0 0
52.214 36.442 111.26 0 0 0
53.469 37.19 113.17 0 0 0
54.625 37.814 114.68 0 0 0
56.016 38.658 116.84 0 0 0
56.707 38.777 116.81 0 0 0
57.31 38.806 116.49 0 0 0
58.915 39.811 119.08 0 0 0
58.727 39.066 116.45 0 0 0
66.684 46.062 136.72 0 0 0
66.416 45.179 133.63 0 0 0
81.375 58.372 171.88 0 0 0
82.221 58.368 171.23 0 0 0
91.282 65.751 192.11 0 0 0
90.612 64.307 187.2 0 0 0
99.103 70.933 205.65 0 0 0
98.245 69.3 200.16 0 0 0
98.085 68.306 196.52 0 0 0
101.89 70.683 202.56 0 0 0
101.17 69.233 197.63 0 0 0
106.04 72.428 205.92 0 0 0
-74.639 68.399 189.17 0 0 0
-68.851 64.714 179.74 0 0 0
-71.144 67.23 187.5 0 0 0
-69.424 66.649 186.66 0 0 0
-57.592 58.012 163.19 0 0 0
-41.593 45.825 129.51 0 0 0
-44.258 48.543 137.73 0 0 0
-38.771 44.612 127.13 0 0 0
-58.142 61.303 175.25 0 0 0
-59.421 63.139 181.21 0 0 0
-59.219 63.757 183.7 0 0 0
-52.382 58.654 169.68 0 0 0
-41.146 49.573 144.03 0 0 0
-30.408 40.702 118.78 0 0 0
-24.563 35.995 105.49 0 0 0
-22.619 34.714 102.13 0 0 0
-20.776 33.492 98.906 0 0 0
-20.363 33.573 99.501 0 0 0
-19.698 33.417 99.389 0 0 0
-18.847 33.08 98.73 0 0 0
-18.467 33.19 99.394 0 0 0
-17.659 32.882 98.803 0 0 0
-17.352 33.067 99.679 0 0 0
-16.807 33.015 99.843 0 0 0
-16.123 32.819 99.564 0 0 0
-15.541 32.724 99.581 0 0 0
-14.887 32.548 99.347 0 0 0
-14.573 32.736 100.21 0 0 0
-14.131 32.787 100.66 0 0 0
-14.311 33.535 103.22 0 0 0
-13.888 33.623 103.78 0 0 0
-13.658 33.937 105.02 0 0 0
-13.542 34.395 106.71 0 0 0
-13.156 34.548 107.45 0 0 0
-12.44 34.306 106.97 0 0 0
-11.87 34.235 107.02 0 0 0
-11.361 34.238 107.28 0 0 0
-10.956 34.375 107.95 0 0 0
-10.288 34.173 107.56 137 94 73
-9.9821 34.445 108.66 138 98 72
-9.4252 34.388 108.71 139 97 75
-8.7478 34.162 108.22 139 95 74
-8.1789 34.08 108.19 138 96 70
-7.8235 34.301 109.1 137 95 69
-7.0986 33.989 108.32 139 93 71
-6.7449 34.221 109.26 137 97 73
-6.1069 34.026 108.84 137 99 71
-5.6222 34.064 109.15 137 98 69
-5.1867 34.182 109.72 138 96 72
-4.5593 33.99 109.29 139 96 73
-3.8696 33.684 108.48 137 96 70
-3.5231 33.955 109.52 137 94 71
-3.0839 34.075 110.07 142 94 71
-2.4809 33.904 109.69 140 99 73
-1.9829 33.92 109.89 140 99 73
-1.5447 34.052 110.47 142 98 73
-0.95076 33.883 110.07 141 101 76
-0.44478 33.884 110.21 139 95 75
0.12416 33.752 109.92 137 94 72
0.59067 33.833 110.32 138 95 70
1.0989 33.827 110.42 135 95 72
1.664 33.689 110.1 136 96 72
2.084 33.886 110.85 134 94 68
2.6168 33.82 110.75 136 92 71
3.1094 33.851 110.96 130 92 70
3.6723 33.699 110.57 133 92 71
4.1667 33.722 110.74 132 90 67
4.6216 33.861 111.29 127 92 69
5.192 33.666 110.74 128 86 67
5.6412 33.833 111.37 128 89 65
6.1862 33.701 111.02 126 86 66
6.6479 33.842 111.55 126 87 63
7.1524 33.843 111.63 124 85 62
7.6452 33.889 111.84 124 84 61
8.1521 33.883 111.88 123 85 58
8.6238 34.026 112.41 119 83 62
9.0572 34.363 113.57 121 83 64
9.2866 35.744 118.15 108 74 58
9.7959 35.863 118.59 123 80 62
10.236 36.394 120.37 119 80 61
10.703 36.856 121.93 113 77 57
11.248 36.871 122.01 111 71 53
11.795 36.878 122.06 106 70 51
12.322 37.053 122.66 111 71 51
12.857 37.201 123.17 107 69 50
13.442 36.833 121.97 106 68 49
13.958 37.255 123.37 105 69 50
14.511 37.257 123.38 105 73 46
15.064 37.259 123.39 106 70 49
15.62 37.148 123.02 104 74 49
16.171 37.169 123.08 105 72 51
16.723 37.015 122.56 103 72 51
17.278 37.52 124.2 104 72 49
17.83 37.35 123.62 104 71 48
18.39 37.514 124.13 104 72 49
18.947 37.52 124.12 101 69 48
19.503 37.519 124.07 101 66 45
20.049 37.396 123.63 101 68 49
20.572 37.071 122.51 99 66 48
21.121 37.071 122.46 100 66 47
21.748 37.687 124.43 108 79 51
22.311 37.715 124.46 99 66 46
22.781 37.147 122.53 95 65 45
23.27 36.781 121.26 96 66 48
23.781 36.6 120.59 97 67 47
24.213 36.041 118.69 103 72 58
24.7 35.817 117.87 112 81 65
25.224 35.787 117.69 115 83 65
25.637 35.299 116.01 118 85 70
26.108 35.094 115.24 117 84 72
26.544 34.783 114.13 116 85 72
27.05 34.747 113.91 117 83 72
27.254 33.704 110.41 95 66 52
27.521 32.961 107.89 84 69 59
28.025 33.005 107.92 53 38 36
28.688 33.509 109.44 50 37 34
29.087 33.236 108.44 24 17 18
29.666 33.467 109.06 37 27 27
30.221 33.62 109.42 39 28 31
30.87 33.995 110.5 39 27 29
31.342 33.919 110.11 49 37 32
31.851 33.933 110.01 63 45 37
32.442 34.133 110.5 70 51 38
32.877 33.979 109.85 77 60 44
33.547 34.333 110.83 80 59 48
34.05 34.322 110.63 83 59 49
34.553 34.312 110.42 82 60 48
35.106 34.401 110.53 86 59 50
35.705 34.571 110.89 88 62 53
36.106 34.367 110.05 89 63 55
36.809 34.718 110.97 89 64 52
37.339 34.748 110.87 89 66 54
37.902 34.832 110.93 91 67 57
38.505 34.98 111.19 90 62 52
39.074 35.066 111.25 91 64 54
39.596 35.072 111.04 88 63 53
40.106 35.061 110.78 89 64 55
40.564 34.969 110.27 85 65 51
41.345 35.364 111.27 90 62 54
41.965 35.509 111.47 0 0 0
42.496 35.519 111.25 0 0 0
43.13 35.675 111.48 0 0 0
43.657 35.677 111.22 0 0 0
44.534 36.151 112.42 0 0 0
44.611 35.549 110.29 0 0 0
44.901 35.246 109.08 0 0 0
45.509 35.36 109.15 0 0 0
46.252 35.639 109.71 0 0 0
46.7 35.546 109.13 0 0 0
47.297 35.636 109.11 0 0 0
48.242 36.137 110.32 0 0 0
48.844 36.22 110.26 0 0 0
49.536 36.404 110.49 0 0 0
50.331 36.699 111.05 0 0 0
51.316 37.198 112.21 0 0 0
52.225 37.597 113.06 0 0 0
53.478 38.356 114.97 0 0 0
55.137 39.523 118.07 0 0 0
62.501 46.631 138.76 0 0 0
67.053 50.63 150.12 0 0 0
74.853 57.816 170.78 0 0 0
76.037 58.167 171.23 0 0 0
64.954 46.381 136.16 0 0 0
59.248 40.162 117.55 0 0 0
64.576 44.725 130.38 0 0 0
63.02 42.634 123.86 0 0 0
65.167 44.066 127.53 0 0 0
79.202 56.448 162.65 0 0 0
82.515 58.73 168.57 0 0 0
98.056 71.969 205.71 0 0 0
97.975 70.984 202.13 0 0 0
102.97 74.486 211.27 0 0 0
100.32 71.264 201.37 0 0 0
103.66 73.257 206.18 0 0 0
106.74 74.982 210.21 0 0 0
107.66 74.86 209.04 0 0 0
-70.599 66.294 180.06 0 0 0
-68.635 65.504 178.66 0 0 0
-68.235 65.931 180.57 0 0 0
-69.554 67.739 186.29 0 0 0
-60.383 61.125 168.82 0 0 0
-47.504 51.333 142.4 0 0 0
-56.235 59.155 164.73 0 0 0
-46.006 51.323 143.54 0 0 0
-46.366 52.256 146.73 0 0 0
-62.149 66.408 187.13 0 0 0
-61.579 66.744 188.81 0 0 0
-58.053 64.497 183.17 0 0 0
-56.978 64.369 183.51 0 0 0
-55.813 64.158 183.6 0 0 0
-50.301 59.981 172.31 0 0 0
-41.484 52.645 151.84 0 0 0
-30.219 42.826 124.04 0 0 0
-23.137 36.706 106.76 0 0 0
-20.951 35.123 102.53 0 0 0
-19.557 34.269 100.39 0 0 0
-18.744 33.963 99.843 0 0 0
-17.95 33.668 99.311 0 0 0
-17.393 33.606 99.453 0 0 0
-16.704 33.406 99.181 0 0 0
-16.075 33.262 99.068 0 0 0
-15.494 33.165 99.086 0 0 0
-14.943 33.097 99.182 0 0 0
-14.486 33.131 99.577 0 0 0
-13.682 32.78 98.812 0 0 0
-13.205 32.788 99.116 0 0 0
-12.371 32.384 98.174 0 0 0
-12.136 32.669 99.299 0 0 0
-12.163 33.273 101.39 0 0 0
-11.402 32.945 100.66 0 0 0
-11.229 33.331 102.09 0 0 0
-11.104 33.789 103.74 0 0 0
-10.887 34.147 105.08 0 0 0
-10.408 34.178 105.42 0 0 0
-9.9903 34.291 106.01 0 0 0
-9.7853 34.695 107.49 0 0 0
-9.2189 34.619 107.48 0 0 0
-8.7135 34.625 107.73 0 0 0
-8.1326 34.523 107.64 0 0 0
-7.6605 34.576 108.02 0 0 0
-6.9752 34.313 107.41 0 0 0
-6.4642 34.305 107.58 0 0 0
-6.0351 34.423 108.15 0 0 0
-5.4727 34.335 108.07 138 99 70
-5.0075 34.4 108.46 139 95 68
-4.5841 34.539 109.08 142 94 72
-3.9357 34.3 108.5 141 96 72
-3.3358 34.133 108.15 139 96 71
-2.9465 34.337 108.96 142 98 74
-2.386 34.235 108.8 138 94 73
-1.9047 34.278 109.09 138 97 72
-1.4641 34.403 109.64 138 99 69
-0.89473 34.276 109.39 139 95 74
-0.46007 34.42 109.98 138 98 72
0.084068 34.34 109.87 138 95 76
0.58866 34.342 110 137 97 69
1.1842 34.138 109.48 138 93 74
1.5662 34.418 110.5 138 95 72
2.0785 34.404 110.57 138 94 72
2.6831 34.158 109.89 137 95 72
3.1595 34.225 110.22 136 94 70
3.6675 34.213 110.28 135 94 69
4.1684 34.219 110.4 133 98 70
4.7337 34.038 109.91 135 92 67
5.1818 34.198 110.51 130 91 71
5.6454 34.322 111 131 93 68
6.1526 34.313 111.05 133 91 68
6.6645 34.286 111.04 129 92 72
7.1559 34.332 111.26 133 93 69
7.6692 34.298 111.22 128 89 67
8.1726 34.301 111.28 131 92 67
8.6533 34.402 111.67 127 93 69
9.077 34.779 112.94 126 88 68
9.3639 35.888 116.57 113 81 60
9.8058 36.338 118.06 126 89 66
10.282 36.664 119.16 121 86 63
10.762 37.026 120.36 115 82 57
11.311 36.979 120.25 113 76 57
11.79 37.458 121.82 111 76 52
12.344 37.404 121.67 110 74 52
12.889 37.43 121.78 107 75 52
13.44 37.395 121.68 107 72 54
13.984 37.44 121.83 108 74 52
14.53 37.468 121.93 112 75 52
15.078 37.471 121.94 109 72 55
15.624 37.536 122.14 107 76 54
16.171 37.637 122.46 106 75 51
16.721 37.677 122.58 110 74 54
17.271 37.593 122.29 109 72 51
17.822 37.651 122.45 102 70 48
18.363 37.399 121.61 105 71 50
18.908 37.37 121.49 107 70 50
19.466 37.556 122.05 106 71 54
20.013 37.528 121.92 105 71 49
20.567 37.591 122.07 105 70 51
21.087 37.324 121.16 102 69 48
21.679 37.699 122.31 107 70 49
22.23 37.701 122.26 105 70 48
22.7 37.177 120.51 103 70 48
23.251 37.224 120.59 103 70 51
23.753 36.996 119.78 107 73 54
24.148 36.249 117.3 112 81 63
24.611 35.932 116.2 116 85 72
25.117 35.848 115.84 121 89 72
25.6 35.675 115.2 122 89 72
26.044 35.368 114.12 124 88 76
26.532 35.258 113.67 122 89 74
27.026 35.185 113.33 124 93 75
27.319 34.431 110.82 122 88 74
27.794 34.34 110.42 119 87 67
28.261 34.233 109.96 103 75 53
28.717 34.098 109.42 92 64 50
29.216 34.099 109.3 97 68 49
29.715 34.101 109.18 105 72 55
30.221 34.122 109.11 102 71 53
30.774 34.26 109.41 104 74 57
31.272 34.255 109.26 102 71 57
31.797 34.313 109.3 101 73 57
32.3 34.318 109.16 101 74 57
32.93 34.604 109.91 98 72 59
33.505 34.755 110.22 102 75 57
34.002 34.736 109.99 99 70 53
34.606 34.934 110.44 97 70 52
35.157 35.015 110.52 95 70 54
35.734 35.143 110.74 96 69 58
36.222 35.099 110.41 94 67 55
36.795 35.21 110.57 96 72 55
37.319 35.231 110.43 0 0 0
37.94 35.417 110.81 0 0 0
38.286 35.13 109.71 0 0 0
38.8 35.136 109.51 0 0 0
39.592 35.588 110.69 0 0 0
39.941 35.321 109.64 0 0 0
40.471 35.347 109.49 0 0 0
41.015 35.392 109.39 0 0 0
41.276 35.017 108 0 0 0
41.993 35.319 108.68 0 0 0
42.501 35.311 108.4 0 0 0
43.075 35.396 108.4 0 0 0
43.725 35.582 108.71 0 0 0
44.155 35.466 108.08 0 0 0
45.163 36.115 109.77 0 0 0
45.755 36.204 109.76 0 0 0
46.568 36.571 110.57 0 0 0
47.096 36.569 110.26 0 0 0
47.701 36.661 110.23 0 0 0
48.3 36.744 110.17 0 0 0
49.529 37.571 112.31 0 0 0
50.153 37.666 112.27 0 0 0
50.951 37.957 112.79 0 0 0
53.852 40.614 120.29 0 0 0
59.052 45.746 135 0 0 0
68.249 55.096 161.99 0 0 0
74.178 60.641 177.68 0 0 0
78.798 64.632 188.73 0 0 0
85.952 71.159 207.06 0 0 0
88.118 72.352 209.82 0 0 0
78.308 61.331 177.32 0 0 0
56.613 38.701 111.65 0 0 0
67.035 48.459 139.21 0 0 0
60.877 41.777 119.64 0 0 0
64.178 44.379 126.61 0 0 0
60.725 40.498 115.14 0 0 0
65.137 44.092 124.86 0 0 0
92.999 69.296 195.31 0 0 0
98.093 73.057 205.12 0 0 0
98.608 72.594 203.05 0 0 0
102.7 75.334 209.9 0 0 0
102.02 73.798 204.83 0 0 0
103.45 74.148 205.01 0 0 0
104.86 74.468 205.09 0 0 0
107.55 75.865 208.12 0 0 0
-72.559 68.796 183.53 0 0 0
-71.799 68.965 184.74 0 0 0
-69.496 67.903 182.65 0 0 0
-69.86 68.975 186.29 0 0 0
-64.687 65.541 177.76 0 0 0
-55.122 58.393 159.04 0 0 0
-48.597 53.623 146.66 0 0 0
-44.253 50.59 138.94 0 0 0
-49.853 56.012 154.43 0 0 0
-61.351 66.684 184.53 0 0 0
-59.434 65.833 182.9 0 0 0
-59.385 66.622 185.8 0 0 0
-59.531 67.607 189.27 0 0 0
-57.658 66.777 187.65 0 0 0
-55.301 65.477 184.69 0 0 0
-54.765 65.848 186.42 0 0 0
-53.087 65.147 185.1 0 0 0
-48.078 61.224 174.6 0 0 0
-40.168 54.368 155.63 0 0 0
-30.736 45.819 131.67 0 0 0
-23.148 38.877 112.16 0 0 0
-19.9 36.147 104.67 0 0 0
-17.691 34.41 99.983 0 0 0
-16.961 34.169 99.606 0 0 0
-16.434 34.135 99.823 0 0 0
-15.604 33.774 99.08 0 0 0
-14.99 33.639 98.986 0 0 0
-14.516 33.655 99.327 0 0 0
-13.951 33.569 99.362 0 0 0
-13.429 33.53 99.53 0 0 0
-12.814 33.38 99.364 0 0 0
-12.282 33.324 99.469 0 0 0
-11.482 32.944 98.603 0 0 0
-11.028 32.974 98.948 0 0 0
-10.766 33.245 100.01 0 0 0
-10.285 33.248 100.27 0 0 0
-9.5761 32.956 99.633 0 0 0
-9.1147 32.98 99.939 0 0 0
-8.5981 32.93 100.02 0 0 0
-8.6302 33.628 102.36 0 0 0
-8.1265 33.607 102.52 0 0 0
-8.2005 34.406 105.16 0 0 0
-7.7188 34.432 105.46 0 0 0
-7.2865 34.532 105.98 0 0 0
-6.7729 34.513 106.13 0 0 0
-6.5395 34.926 107.6 0 0 0
-5.9578 34.808 107.43 0 0 0
-5.3063 34.571 106.9 0 0 0
-5.0334 34.949 108.25 0 0 0
-4.3822 34.705 107.68 0 0 0
-4.034 34.975 108.69 0 0 0
-3.3955 34.742 108.14 0 0 0
-2.8444 34.656 108.04 0 0 0
-2.3303 34.635 108.14 0 0 0
-1.7887 34.56 108.06 0 0 0
-1.3976 34.777 108.89 0 0 0
-0.83895 34.667 108.7 0 0 0
-0.29689 34.585 108.58 0 0 0
0.19167 34.613 108.81 0 0 0
0.63963 34.733 109.31 141 98 66
1.2298 34.535 108.82 138 95 71
1.7063 34.592 109.12 136 95 71
2.2659 34.45 108.8 140 97 73
2.7637 34.455 108.92 139 95 73
3.2579 34.469 109.07 139 92 72
3.7489 34.492 109.25 137 97 75
4.1698 34.716 110.06 133 96 71
4.6244 34.859 110.6 136 98 70
5.2037 34.631 109.97 135 94 74
5.7198 34.585 109.91 134 93 71
6.2048 34.639 110.16 133 93 71
6.6424 34.866 110.95 135 93 68
7.1617 34.812 110.86 133 93 69
7.7324 34.551 110.1 133 92 71
8.1384 34.943 111.4 131 94 72
8.6395 34.964 111.53 132 94 67
9.1063 35.148 112.16 129 91 68
9.4251 36.103 115.24 120 83 64
9.8809 36.46 116.42 128 91 68
10.312 37.017 118.23 124 85 64
10.778 37.457 119.67 120 83 59
11.37 37.102 118.57 118 81 57
11.905 37.1 118.59 117 80 57
12.392 37.524 119.96 121 81 58
12.94 37.46 119.78 113 78 56
13.478 37.487 119.88 113 77 55
14.025 37.407 119.64 114 78 57
14.559 37.508 119.96 113 77 57
15.095 37.609 120.29 116 79 55
15.648 37.268 119.2 113 78 54
16.178 37.733 120.67 115 78 57
16.721 37.782 120.81 112 77 56
17.267 37.859 121.04 116 77 56
17.813 37.883 121.09 111 76 56
18.356 37.808 120.83 112 76 54
18.911 37.995 121.39 112 77 53
19.452 37.903 121.06 110 74 53
20.003 37.975 121.25 113 76 55
20.536 37.821 120.71 114 78 53
21.087 37.884 120.86 112 76 52
21.648 38.012 121.21 112 76 56
22.177 37.878 120.72 111 73 52
22.695 37.699 120.09 110 75 54
23.224 37.612 119.75 111 78 56
23.609 36.735 116.9 116 78 65
24.13 36.694 116.69 117 87 66
24.575 36.29 115.33 121 88 72
25.087 36.24 115.09 124 91 72
25.578 36.11 114.59 124 90 73
26.034 35.853 113.69 129 90 74
26.421 35.359 112.03 126 93 72
27.018 35.676 112.93 125 92 74
27.299 34.874 110.3 121 88 75
27.802 34.873 110.19 123 87 73
28.226 34.627 109.3 116 85 63
28.74 34.673 109.33 113 79 57
29.212 34.592 108.95 104 72 55
29.744 34.685 109.12 108 76 59
30.275 34.77 109.25 109 76 60
30.802 34.837 109.32 106 75 60
31.301 34.832 109.17 107 74 60
31.842 34.928 109.32 0 0 0
32.391 35.035 109.5 0 0 0
32.881 35.004 109.25 0 0 0
33.425 35.093 109.36 0 0 0
33.942 35.119 109.27 0 0 0
34.558 35.348 109.81 0 0 0
35.02 35.256 109.35 0 0 0
35.659 35.514 109.96 0 0 0
36.083 35.35 109.27 0 0 0
36.647 35.454 109.39 0 0 0
37.06 35.281 108.67 0 0 0
37.537 35.229 108.31 0 0 0
38.029 35.206 108.03 0 0 0
38.51 35.164 107.69 0 0 0
39.012 35.161 107.46 0 0 0
39.295 34.806 106.16 0 0 0
40.065 35.23 107.22 0 0 0
40.593 35.265 107.09 0 0 0
41.142 35.33 107.05 0 0 0
42.084 35.972 108.74 0 0 0
42.316 35.563 107.26 0 0 0
43.176 36.059 108.49 0 0 0
43.883 36.324 109.01 0 0 0
44.433 36.365 108.86 0 0 0
45.201 36.697 109.57 0 0 0
45.702 36.666 109.19 0 0 0
46.383 36.869 109.5 0 0 0
47.168 37.196 110.17 0 0 0
48.612 38.332 113.2 0 0 0
49.959 39.312 115.76 0 0 0
53.027 42.328 124.24 0 0 0
57.705 47.15 137.94 0 0 0
64.588 54.383 158.56 0 0 0
74.663 65.046 188.99 0 0 0
77.661 67.395 195.2 0 0 0
84.362 73.787 213 0 0 0
85.359 73.747 212.2 0 0 0
86.434 73.793 211.65 0 0 0
86.984 73.281 209.49 0 0 0
87.745 73.006 208 0 0 0
78.262 62.172 176.59 0 0 0
56.618 39.273 111.28 0 0 0
64.365 46.486 131.2 0 0 0
58.502 40.038 112.64 0 0 0
63.482 44.347 124.28 0 0 0
60.94 41.297 115.32 0 0 0
73.692 52.868 147.01 0 0 0
91.366 68.763 190.41 0 0 0
98.711 74.684 206.01 0 0 0
102.1 76.838 211.14 0 0 0
100.72 74.624 204.29 0 0 0
104.28 76.888 209.67 0 0 0
103.18 74.974 203.67 0 0 0
106.63 77.085 208.59 0 0 0
107.78 77.156 207.98 0 0 0
-70.135 67.862 177.86 0 0 0
-71.873 70.016 184.25 0 0 0
-70.987 70.09 185.2 0 0 0
-69.857 69.965 185.62 0 0 0
-66.892 68.316 181.99 0 0 0
-53.709 58.049 155.29 0 0 0
-51.264 56.663 152.21 0 0 0
-46.58 53.321 143.82 0 0 0
-45.636 53.153 143.94 0 0 0
-59.29 65.83 178.93 0 0 0
-61.455 68.581 187.13 0 0 0
-60.081 68.208 186.83 0 0 0
-59.19 68.267 187.71 0 0 0
-57.55 67.636 186.69 0 0 0
-57.677 68.645 190.17 0 0 0
-54.248 66.303 184.37 0 0 0
-54.017 66.977 186.92 0 0 0
-51.926 65.856 184.45 0 0 0
-50.853 65.711 184.69 0 0 0
-51.277 67.06 189.12 0 0 0
-47.319 63.997 181.11 0 0 0
-40.298 57.691 163.85 0 0 0
