82.974 -42.048 220.58 53 62 72
84.869 -42.586 223 53 60 74
84.525 -41.764 218 53 60 73
87.045 -42.659 222.32 51 60 69
88.051 -42.645 221.7 52 62 72
88.061 -42.06 217.97 50 63 70
90.028 -42.598 220.31 51 60 66
91.738 -42.978 221.77 51 58 72
92.973 -43.085 221.75 51 58 69
96.147 -44.241 227.34 50 58 71
95.659 -43.405 222.24 50 55 66
98.603 -44.404 226.93 47 55 66
98.902 -43.997 224.12 0 0 0
100.86 -44.455 225.88 0 0 0
101.39 -44.172 223.72 0 0 0
102.86 -44.372 224.1 0 0 0
105.59 -45.186 227.68 0 0 0
105.36 -44.534 223.56 0 0 0
106.83 -44.719 223.83 0 0 0
-64.737 -38.301 185.94 107 124 152
-63.914 -38.335 186.85 111 125 150
-62.512 -38.101 186.37 72 116 149
-61.716 -38.146 187.32 116 128 153
-60.852 -38.16 188.09 115 133 157
-59.466 -37.922 187.56 67 108 154
-58.974 -38.114 189.25 67 96 147
-57.285 -37.721 187.88 75 91 145
-56.246 -37.643 188.13 110 99 146
-55.46 -37.69 189.03 54 90 153
-54.164 -37.477 188.56 120 128 163
-53.141 -37.4 188.79 124 135 163
-52.37 -37.453 189.7 128 143 173
-50.915 -37.145 188.68 126 143 174
-50.43 -37.349 190.38 127 141 175
-49.422 -37.275 190.58 130 143 176
-48.028 -36.985 189.61 131 145 176
-47.422 -37.129 190.96 131 149 177
-46.375 -37.026 190.98 111 109 167
-45.344 -36.929 191.01 135 149 179
-44.714 -37.064 192.29 135 151 177
-43.376 -36.784 191.31 134 149 183
-42.541 -36.797 191.91 133 147 179
-41.478 -36.672 191.75 138 151 183
-40.489 -36.59 191.81 87 81 87
-38.603 -35.942 188.74 141 155 185
-30.076 -31.048 162.16 88 118 152
-25.613 -28.628 149.15 255 255 255
-23.963 -27.979 145.91 238 254 255
-22.7 -27.567 143.97 243 255 255
-22.022 -27.539 144.16 255 255 255
-21.472 -27.598 144.82 255 255 255
-20.716 -27.515 144.69 255 255 255
-20.086 -27.518 145.03 255 255 255
-19.428 -27.502 145.26 255 255 255
-18.765 -27.482 145.46 255 255 255
-18.123 -27.477 145.74 255 255 255
-17.727 -27.66 147.07 255 255 255
-17.315 -27.838 148.38 219 242 255
-16.59 -27.773 148.31 197 215 246
-15.912 -27.745 148.43 184 196 222
-15.4 -27.853 149.33 188 200 223
-14.841 -27.926 150.02 197 208 242
-14.35 -28.059 151.06 188 203 229
-14.114 -28.425 153.42 175 191 208
-14.04 -28.951 156.71 169 182 205
-14.25 -29.762 161.65 115 127 138
-15.997 -32.055 175.14 127 146 177
-18.43 -35.116 193.11 130 148 173
-18.185 -35.685 196.7 129 147 174
-17.314 -35.65 196.8 131 147 177
-16.459 -35.63 196.98 141 146 161
-15.549 -35.552 196.81 133 143 154
-14.78 -35.623 197.5 127 136 146
-13.857 -35.526 197.2 82 110 132
-13.034 -35.539 197.54 121 126 154
-12.159 -35.492 197.52 103 143 175
-11.426 -35.615 198.49 124 144 178
-10.6 -35.629 198.81 134 148 176
-9.6778 -35.52 198.41 133 149 177
-8.8387 -35.515 198.61 135 149 175
-8.0644 -35.6 199.33 135 147 170
-7.1234 -35.453 198.68 132 145 177
-6.253 -35.4 198.58 97 125 162
-5.4721 -35.482 199.26 132 144 171
-4.6129 -35.445 199.24 134 146 173
-3.8208 -35.517 199.85 131 145 166
-3.0765 -35.679 200.99 132 143 176
-2.185 -35.589 200.64 94 117 168
-1.3031 -35.51 200.34 76 103 148
-0.44744 -35.476 200.3 128 139 169
0.3712 -35.516 200.69 129 141 167
1.2345 -35.463 200.53 115 129 156
2.0381 -35.543 201.15 123 136 159
2.8677 -35.57 201.44 126 138 163
3.7175 -35.547 201.44 121 135 160
4.5454 -35.585 201.79 112 128 153
5.4013 -35.544 201.67 101 109 144
6.2313 -35.582 202.01 94 110 152
7.0423 -35.694 202.78 117 133 159
7.9024 -35.64 202.56 49 89 140
8.7532 -35.616 202.51 117 135 158
9.5874 -35.666 202.89 120 132 160
10.434 -35.667 202.98 62 85 132
11.285 -35.634 202.86 117 129 156
12.106 -35.818 204.03 59 87 137
12.957 -35.82 204.1 91 112 156
13.833 -35.544 202.51 56 74 111
14.656 -35.89 204.63 60 48 34
15.518 -35.683 203.44 68 53 30
16.362 -35.996 205.35 59 43 27
17.222 -36.295 207.17 52 45 38
18.094 -36.486 208.34 56 60 67
18.964 -36.496 208.42 77 79 88
19.842 -36.591 209 66 75 109
20.712 -36.558 208.81 65 80 115
21.59 -36.604 209.08 102 109 125
22.445 -36.484 208.36 96 107 125
23.33 -36.556 208.78 93 105 122
24.218 -36.628 209.19 47 79 111
25.127 -36.769 210 99 107 122
26.015 -36.802 210.17 98 107 123
26.905 -36.837 210.34 94 107 123
27.775 -36.798 210.06 98 109 120
28.655 -36.794 209.99 93 105 124
29.549 -36.829 210.14 84 98 118
30.484 -36.968 210.91 93 104 117
31.364 -36.951 210.73 94 104 119
32.266 -36.988 210.87 91 101 117
33.133 -36.943 210.51 91 101 116
34.13 -37.172 211.79 89 97 116
35.017 -37.161 211.63 73 80 107
35.884 -37.112 211.23 86 96 106
36.825 -37.201 211.64 85 97 104
37.678 -37.128 211.09 79 95 107
38.649 -37.257 211.73 84 95 108
39.639 -37.406 212.48 84 94 110
40.619 -37.526 213.05 81 91 103
41.482 -37.465 212.54 81 90 106
42.474 -37.591 213.13 82 91 104
43.279 -37.453 212.15 80 89 103
44.338 -37.659 213.2 78 86 102
45.148 -37.532 212.26 79 89 103
46.149 -37.65 212.78 73 85 97
47.284 -37.921 214.19 77 86 101
48.324 -38.066 214.84 76 86 98
49.307 -38.137 215.05 72 83 96
50.059 -37.949 213.72 56 56 82
51.146 -38.129 214.56 55 59 78
52.092 -38.153 214.46 39 41 62
53.045 -38.182 214.39 40 53 75
53.986 -38.197 214.23 41 62 83
55.157 -38.435 215.37 60 74 89
55.967 -38.318 214.41 66 74 84
57.16 -38.562 215.57 68 74 86
58.067 -38.535 215.13 68 75 82
59.175 -38.687 215.72 65 71 82
60.103 -38.676 215.35 67 73 85
61.411 -38.987 216.85 63 71 81
62.349 -38.978 216.48 63 73 79
63.434 -39.087 216.79 62 71 79
64.655 -39.302 217.69 61 69 81
65.56 -39.26 217.1 63 72 79
66.684 -39.387 217.47 64 70 80
67.592 -39.346 216.87 60 70 76
69.029 -39.698 218.52 62 69 79
69.72 -39.495 216.97 50 62 80
71.433 -40.027 219.62 58 68 80
72.316 -39.959 218.83 59 67 78
73.754 -40.275 220.21 59 67 78
74.482 -40.099 218.78 58 67 77
76.385 -40.71 221.82 58 65 79
76.813 -40.336 219.25 58 66 78
78.347 -40.685 220.77 58 64 74
79.815 -40.981 221.97 57 66 77
79.888 -40.399 218.2 57 65 73
81.13 -40.551 218.57 56 62 73
82.026 -40.489 217.72 55 64 72
83.628 -40.848 219.23 57 61 74
86.012 -41.653 223.21 55 61 73
87.051 -41.659 222.7 53 61 71
87.218 -41.169 219.42 56 61 73
89.001 -41.597 221.25 54 61 76
90.699 -41.966 222.72 51 62 71
92.151 -42.191 223.38 51 59 70
92.858 -42.008 221.78 51 58 71
94.166 -42.149 221.94 51 58 71
93.881 -41.452 217.52 49 58 66
97.269 -42.669 223.55 50 55 69
98.155 -42.579 222.42 0 0 0
100.61 -43.278 225.56 0 0 0
101.12 -42.997 223.38 0 0 0
102.4 -43.096 223.24 0 0 0
103.32 -43.022 222.16 0 0 0
107.11 -44.319 228.43 0 0 0
106.21 -43.368 222.62 0 0 0
-64.761 -37.406 186.28 76 116 149
-63.434 -37.213 186 111 125 152
-62.389 -37.144 186.35 112 128 151
-62.062 -37.403 188.44 115 131 161
-60.466 -37.078 187.42 118 133 159
-59.313 -36.954 187.46 73 93 148
-58.276 -36.881 187.75 118 133 157
-57.2 -36.788 187.93 124 137 166
-56.09 -36.676 187.99 100 128 163
-55.233 -36.686 188.7 87 107 158
-54.255 -36.635 189.08 110 129 158
-53.632 -36.763 190.41 127 145 171
-52.291 -36.526 189.75 130 142 171
-51.315 -36.472 190.07 127 145 168
-50.353 -36.424 190.42 133 145 180
-49.347 -36.352 190.62 132 144 172
-48.243 -36.225 190.51 128 147 178
-47.258 -36.159 190.72 132 148 181
-46.404 -36.164 191.32 130 143 168
-45.408 -36.089 191.47 134 148 178
-44.24 -35.916 191.05 133 150 180
-43.378 -35.913 191.57 136 152 183
-42.38 -35.83 191.64 137 153 180
-41.313 -35.704 191.45 137 155 183
-40.376 -35.653 191.67 135 138 144
-36.97 -34.091 183.32 137 154 184
-26.37 -28.014 149.3 255 255 255
-24.663 -27.355 145.93 255 255 255
-23.831 -27.237 145.61 255 255 255
-22.876 -27.034 144.81 255 255 255
-21.992 -26.872 144.22 255 255 255
-21.354 -26.87 144.55 255 255 255
-20.731 -26.878 144.93 242 255 255
-19.745 -26.634 143.84 244 248 255
-18.828 -26.43 142.98 227 236 253
-18.54 -26.673 144.69 230 242 255
-18.098 -26.812 145.8 252 255 255
-17.782 -27.049 147.48 246 255 255
-17.265 -27.144 148.33 211 235 255
-16.433 -26.997 147.77 202 215 238
-15.926 -27.102 148.66 203 215 246
-15.384 -27.183 149.42 196 209 245
-14.706 -27.156 149.53 198 212 244
-14.37 -27.414 151.32 184 198 224
-13.865 -27.539 152.33 171 183 209
-13.914 -28.155 156.23 117 131 135
-13.996 -28.829 160.47 152 170 181
-15.056 -30.431 170.22 127 145 176
-17.58 -33.481 188.59 131 150 171
-18.232 -34.878 197.18 134 151 176
-17.345 -34.829 197.19 132 151 174
-16.499 -34.82 197.42 134 143 150
-15.541 -34.694 196.96 121 124 130
-14.7 -34.686 197.19 116 127 129
-13.939 -34.766 197.93 129 132 143
-13.023 -34.676 197.66 117 121 156
-12.2 -34.689 197.99 130 148 174
-11.327 -34.644 197.97 113 132 166
-10.485 -34.634 198.15 137 149 178
-9.7117 -34.711 198.85 137 148 181
-8.8125 -34.629 198.58 111 137 174
-8.0215 -34.688 199.16 136 151 173
-7.1168 -34.592 198.8 132 147 169
-6.317 -34.642 199.31 132 145 175
-5.4826 -34.644 199.52 129 143 175
-4.6233 -34.608 199.5 133 147 170
-3.7985 -34.626 199.8 131 146 173
-2.9928 -34.677 200.29 134 142 168
-2.1871 -34.734 200.81 88 100 149
-1.2768 -34.604 200.19 66 84 141
-0.47236 -34.666 200.74 123 137 164
0.38728 -34.624 200.63 124 139 165
1.2381 -34.596 200.62 80 96 127
2.0559 -34.641 201.03 125 136 164
2.9021 -34.623 201.06 125 139 163
3.7381 -34.63 201.24 75 112 157
4.557 -34.686 201.71 120 134 160
5.356 -34.809 202.58 114 121 150
6.2357 -34.697 202.01 95 119 154
7.0513 -34.788 202.67 112 130 150
7.9087 -34.739 202.47 48 79 134
8.7512 -34.744 202.6 119 131 156
9.5993 -34.726 202.57 120 134 158
10.429 -34.798 203.1 105 114 143
11.288 -34.723 202.72 110 125 152
12.129 -34.749 202.94 117 129 151
12.977 -34.728 202.88 111 125 145
13.82 -34.75 203.07 93 98 97
14.671 -34.676 202.67 59 46 31
15.508 -34.861 203.85 64 52 32
16.356 -34.999 204.74 60 41 27
17.214 -35.434 207.44 49 44 38
18.083 -35.534 208.08 58 61 65
18.955 -35.616 208.6 79 87 95
19.81 -35.44 207.54 89 99 116
20.704 -35.685 209.05 93 106 123
21.588 -35.773 209.59 100 109 127
22.457 -35.732 209.33 102 107 126
23.342 -35.792 209.69 97 109 126
24.203 -35.719 209.22 56 79 114
25.08 -35.727 209.25 97 110 128
25.999 -35.893 210.24 95 108 123
26.874 -35.879 210.11 97 107 122
27.765 -35.913 210.28 95 108 121
28.648 -35.918 210.26 95 105 121
29.523 -35.9 210.09 87 99 117
30.438 -35.988 210.56 92 105 119
31.297 -35.928 210.12 92 104 120
32.219 -36.016 210.59 95 104 120
33.062 -35.924 209.94 90 102 113
33.956 -35.947 209.99 87 100 114
34.848 -35.96 209.97 75 91 109
35.873 -36.218 211.44 88 97 111
36.8 -36.28 211.71 87 97 112
37.669 -36.238 211.34 66 87 108
38.649 -36.377 212.06 84 94 107
39.565 -36.408 212.11 83 95 105
40.42 -36.343 211.58 83 95 108
41.519 -36.632 213.2 86 92 107
42.412 -36.617 212.94 82 94 106
43.366 -36.682 213.18 79 91 101
44.24 -36.639 212.75 80 91 106
45.165 -36.663 212.72 82 88 106
46.293 -36.931 214.16 75 88 101
47.229 -36.956 214.12 77 90 100
48.322 -37.159 215.15 77 88 98
49.055 -36.951 213.68 78 83 100
50.195 -37.193 214.93 74 83 95
51.167 -37.244 215.01 45 45 70
52.147 -37.301 215.12 52 59 81
53.01 -37.238 214.5 70 77 86
54.024 -37.325 214.78 70 77 87
54.907 -37.282 214.26 69 79 88
56.152 -37.577 215.77 68 78 88
57.079 -37.569 215.45 67 75 85
58.072 -37.62 215.47 63 71 84
59.101 -37.7 215.66 55 60 77
60.176 -37.814 216.04 58 68 84
61.91 -38.468 219.64 62 73 82
62.354 -38.05 216.83 63 71 81
63.323 -38.066 216.59 61 71 79
64.518 -38.255 217.38 62 71 81
65.281 -38.108 216.16 63 71 81
66.554 -38.347 217.23 61 71 82
67.38 -38.249 216.28 61 67 80
68.968 -38.703 218.59 61 71 80
70.054 -38.785 218.69 60 65 77
70.986 -38.757 218.13 60 68 82
71.925 -38.734 217.59 60 69 81
73.616 -39.215 220 60 69 80
74.15 -38.918 217.84 60 70 83
75.23 -38.984 217.79 58 68 80
76.88 -39.41 219.84 59 68 79
77.183 -38.978 216.86 59 66 76
78.914 -39.441 219.09 57 65 80
80.344 -39.705 220.14 45 50 71
81.341 -39.702 219.64 52 63 74
84.096 -40.733 225.08 54 61 77
83.231 -39.635 218.25 54 63 75
84.95 -40.044 220.08 55 64 73
86.085 -40.112 219.94 55 63 73
88.655 -40.973 224.32 54 63 73
88.632 -40.393 220.45 53 61 71
90.161 -40.664 221.43 50 60 72
90.755 -40.432 219.53 52 58 74
92.716 -40.921 221.71 52 60 68
93.87 -40.979 221.44 50 58 69
95.944 -41.504 223.78 50 57 71
97.072 -41.539 223.35 50 58 66
98.382 -41.663 223.41 50 57 68
98.504 -41.201 220.18 0 0 0
99.182 -41.019 218.52 0 0 0
103.16 -42.419 225.62 0 0 0
103.44 -42.036 222.82 0 0 0
106.38 -42.904 226.92 0 0 0
106.85 -42.611 224.59 0 0 0
-64.728 -36.486 186.48 47 70 126
-63.184 -36.203 185.68 110 126 151
-62.695 -36.38 187.36 113 128 158
-61.227 -36.123 186.68 118 131 161
-60.17 -36.046 186.96 122 133 168
-59.88 -36.318 189.14 116 133 165
-58.18 -35.943 187.78 119 135 168
-57.212 -35.902 188.23 109 134 167
-56.237 -35.857 188.64 119 132 160
-55.368 -35.861 189.32 124 139 168
-54.226 -35.733 189.26 126 139 173
-53.613 -35.862 190.62 129 142 171
-52.49 -35.739 190.56 128 144 171
-50.927 -35.392 189.23 132 147 173
-50.297 -35.512 190.52 129 146 176
-49.405 -35.5 191.05 131 144 175
-48.273 -35.362 190.85 134 149 179
-47.112 -35.204 190.54 133 144 178
-46.125 -35.136 190.71 132 146 176
-45.312 -35.161 191.42 135 148 180
-44.234 -35.04 191.27 136 150 182
-43.164 -34.92 191.12 136 152 186
-42.255 -34.889 191.47 137 153 185
-41.24 -34.795 191.45 137 153 180
-38.718 -33.814 186.26 138 154 182
-28.324 -28.11 153.58 144 156 188
-25.349 -26.721 145.88 153 172 187
-24.64 -26.683 146.02 160 186 217
-23.793 -26.558 145.65 209 230 253
-22.648 -26.239 144.13 255 255 255
-21.731 -26.057 143.4 139 153 192
-20.942 -25.953 143.13 116 119 125
-20.029 -25.763 142.33 119 122 120
-19.233 -25.646 141.96 116 127 124
-18.627 -25.656 142.32 108 118 116
-18.301 -25.863 143.86 108 118 130
-17.75 -25.917 144.48 126 138 156
-17.751 -26.375 147.52 156 174 191
-17.255 -26.481 148.45 191 204 229
-16.461 -26.367 148.06 211 221 244
-15.91 -26.436 148.75 221 237 255
-15.21 -26.39 148.76 238 244 255
-14.739 -26.526 149.85 218 234 255
-14.238 -26.643 150.83 187 201 242
-13.828 -26.843 152.3 163 176 202
-13.872 -27.438 156.17 104 116 116
-13.797 -27.956 159.58 142 149 159
-14.605 -29.288 167.95 127 146 171
-17.686 -32.76 189.37 134 146 174
-18.229 -34.022 197.36 136 148 174
-17.273 -33.908 196.96 126 151 177
-16.487 -33.956 197.54 124 127 138
-15.605 -33.909 197.54 103 108 105
-14.68 -33.816 197.25 102 108 109
-13.906 -33.88 197.91 120 125 139
-13.086 -33.896 198.27 135 149 180
-12.199 -33.837 198.17 135 149 175
-11.314 -33.78 198.06 75 90 146
-10.512 -33.816 198.53 138 151 176
-9.6694 -33.807 198.71 137 151 178
-8.8311 -33.802 198.91 120 141 172
-7.9108 -33.69 198.43 135 148 175
-7.1451 -33.78 199.21 136 148 175
-6.2679 -33.721 199.05 133 147 178
-5.4516 -33.746 199.41 132 142 166
-4.5691 -33.673 199.15 133 146 174
-3.7646 -33.718 199.62 131 148 166
-2.952 -33.755 200.03 132 143 170
-2.1402 -33.796 200.46 126 139 168
-1.2897 -33.772 200.49 127 138 167
-0.50992 -33.88 201.32 129 145 170
0.38189 -33.777 200.84 119 134 164
1.1698 -33.881 201.64 72 80 121
2.0015 -33.901 201.91 126 140 166
2.9183 -33.724 200.95 126 140 165
3.7171 -33.82 201.68 124 139 161
4.5492 -33.841 201.94 124 139 166
5.4039 -33.802 201.81 125 137 158
6.2188 -33.88 202.42 123 136 160
7.0631 -33.875 202.49 123 133 164
7.9009 -33.893 202.71 93 117 151
8.7422 -33.902 202.86 121 134 153
9.5987 -33.847 202.6 122 134 154
10.439 -33.862 202.78 119 133 159
11.241 -34.105 204.39 116 132 153
12.125 -33.874 203 120 130 150
12.951 -34.035 204.08 118 128 149
13.815 -33.879 203.15 107 113 118
14.645 -34.101 204.6 59 47 32
15.503 -33.946 203.67 62 45 29
16.346 -34.327 206.12 60 42 26
17.205 -34.48 207.12 46 46 41
18.076 -34.703 208.55 58 64 67
18.946 -34.722 208.69 80 87 101
19.817 -34.746 208.86 83 97 120
20.691 -34.77 209.02 95 108 122
21.566 -34.795 209.18 97 109 124
22.445 -34.834 209.43 97 112 126
23.305 -34.767 208.99 98 109 125
24.194 -34.84 209.43 97 109 128
25.064 -34.82 209.28 99 109 127
25.945 -34.847 209.42 101 109 125
26.875 -35.028 210.53 96 109 126
27.745 -34.996 210.28 96 107 125
28.633 -35.019 210.38 94 107 120
29.511 -35.011 210.27 78 101 119
30.393 -35.013 210.22 95 102 119
31.247 -34.949 209.75 93 105 121
32.213 -35.138 210.86 92 103 120
33.209 -35.368 212.23 93 104 122
34.023 -35.214 211.16 90 101 112
34.955 -35.296 211.59 61 83 106
35.828 -35.263 211.28 86 101 115
36.856 -35.501 212.66 87 98 112
37.635 -35.306 211.31 60 81 102
38.649 -35.498 212.39 85 98 110
39.437 -35.331 211.22 83 95 109
40.453 -35.51 212.2 83 94 106
41.53 -35.76 213.62 84 93 106
42.4 -35.711 213.16 85 91 108
42.718 -34.946 208.21 82 90 105
42.967 -34.144 203.03 81 91 100
43.556 -33.807 200.76 79 88 102
44.743 -34.199 203.03 78 87 106
45.996 -34.642 205.62 77 87 101
47.114 -34.91 207.09 128 130 150
48.278 -35.21 208.76 173 188 205
49.662 -35.725 211.75 122 144 182
50.655 -35.812 212.07 158 177 207
51.57 -35.816 211.87 149 166 169
52.995 -36.315 214.72 136 135 138
53.974 -36.366 214.8 82 90 106
54.932 -36.395 214.72 76 81 96
55.924 -36.452 214.81 70 78 95
57.057 -36.632 215.65 69 80 91
58.05 -36.681 215.67 68 77 87
58.984 -36.679 215.37 66 73 89
60.034 -36.771 215.64 65 74 86
61.107 -36.879 215.99 63 74 86
62.223 -37.015 216.51 60 68 82
63.396 -37.189 217.25 47 60 79
64.189 -37.068 216.18 59 69 79
65.224 -37.131 216.22 62 71 83
66.554 -37.406 217.54 63 70 82
67.637 -37.494 217.72 62 72 81
69.014 -37.785 219.11 64 69 80
69.931 -37.747 218.5 56 62 77
70.958 -37.785 218.34 60 69 82
72.627 -38.249 220.73 62 71 78
72.987 -37.84 217.86 61 69 83
74.002 -37.866 217.59 60 69 78
75.754 -38.356 220.1 62 69 80
76.918 -38.464 220.3 59 66 80
77.392 -38.147 217.95 57 67 79
78.985 -38.512 219.67 59 67 80
81.089 -39.167 223.09 57 66 75
81.211 -38.647 219.52 57 65 80
82.506 -38.816 220.02 55 64 75
84.586 -39.422 223.1 55 65 77
85.6 -39.417 222.55 56 63 78
87.049 -39.65 223.38 52 63 73
88.363 -39.804 223.74 50 60 73
88.489 -39.319 220.34 54 59 70
91.242 -40.227 225.08 53 61 69
91.9 -40.025 223.32 51 59 69
92.829 -39.966 222.39 51 59 68
93.737 -39.898 221.39 52 58 70
95.52 -40.266 222.91 50 57 67
94.647 -39.322 216.85 50 58 65
98.392 -40.636 223.78 49 56 67
99.43 -40.623 223.06 0 0 0
100.97 -40.845 223.68 0 0 0
102.13 -40.886 223.24 0 0 0
104.11 -41.302 224.93 0 0 0
105.35 -41.372 224.63 0 0 0
106.3 -41.308 223.56 0 0 0
-64.569 -35.514 186.37 91 122 152
-63.644 -35.501 187.03 103 112 151
-62.641 -35.455 187.49 117 128 159
-61.586 -35.383 187.81 118 134 160
-60.392 -35.25 187.77 121 133 164
-59.545 -35.267 188.56 118 133 163
-58.439 -35.168 188.69 123 137 164
-57.193 -35.002 188.44 117 127 157
-56.187 -34.943 188.77 126 138 165
-54.917 -34.76 188.38 128 144 166
-54.299 -34.88 189.71 126 143 173
-53.134 -34.741 189.55 127 144 171
-52.058 -34.641 189.61 131 144 175
-51.183 -34.638 190.21 131 142 175
-50.174 -34.569 190.41 132 148 175
-49.19 -34.509 190.67 131 148 176
-48.108 -34.398 190.61 133 148 174
-47.428 -34.493 191.74 136 152 181
-46.264 -34.335 191.38 138 150 183
-45.199 -34.226 191.3 136 150 182
-44.176 -34.137 191.33 138 153 182
-43.298 -34.125 191.79 135 150 184
-42.208 -33.995 191.55 139 154 181
-41.446 -34.045 192.37 127 149 179
-34.322 -30.458 171.5 141 154 187
-26.683 -26.462 148.07 91 95 95
-25.044 -25.884 144.98 105 111 107
-24.601 -26.002 146.06 99 108 108
-23.693 -25.843 145.46 187 192 230
-22.328 -25.395 143.11 249 249 255
-21.68 -25.383 143.38 115 120 126
-21.04 -25.377 143.67 125 137 132
-20.394 -25.366 143.93 126 136 136
-19.82 -25.402 144.48 125 136 136
-19.196 -25.406 144.82 121 134 133
-18.352 -25.26 144.23 114 125 114
-17.719 -25.256 144.51 109 116 108
-17.582 -25.603 146.94 105 110 108
-17.225 -25.805 148.48 119 123 132
-16.438 -25.699 148.11 228 231 255
-15.801 -25.7 148.41 242 253 255
-15.158 -25.697 148.67 252 255 255
-14.814 -25.928 150.37 215 230 255
-14.428 -26.136 151.93 181 199 230
-14.094 -26.395 153.81 155 162 166
-13.875 -26.76 156.35 139 149 160
-13.942 -27.386 160.51 90 100 98
-14.39 -28.372 166.94 127 134 138
-16.541 -30.921 183.17 133 149 175
-18.236 -33.176 197.59 132 151 178
-17.334 -33.116 197.51 98 106 139
-16.345 -32.969 196.88 106 116 114
-15.608 -33.062 197.75 97 99 94
-14.619 -32.906 197.04 95 103 96
-13.821 -32.94 197.53 129 128 131
-13.055 -33.012 198.24 143 155 183
-12.139 -32.922 197.94 144 155 184
-11.298 -32.912 198.12 136 153 172
-10.496 -32.948 198.59 138 149 185
-9.6313 -32.911 198.59 137 149 178
-8.8538 -32.979 199.25 136 151 176
-8.001 -32.957 199.33 136 149 176
-7.1633 -32.953 199.53 135 147 175
-6.3025 -32.918 199.51 132 149 177
-5.4113 -32.837 199.2 134 146 178
-4.6327 -32.917 199.91 134 147 175
-3.7101 -32.783 199.24 133 148 171
-2.883 -32.791 199.47 130 143 174
-2.1154 -32.899 200.34 131 141 169
-1.2716 -32.885 200.42 129 144 164
-0.4458 -32.903 200.7 132 141 171
0.32195 -33.035 201.71 122 136 161
1.1776 -33.004 201.66 90 102 147
2.0126 -33.014 201.88 127 143 164
2.8883 -32.934 201.5 128 139 169
3.7618 -32.849 201.09 126 141 165
4.5958 -32.856 201.26 127 140 163
5.3878 -32.982 202.19 122 136 161
6.2397 -32.949 202.09 104 128 158
7.0566 -33.025 202.69 124 136 158
7.9058 -33.002 202.64 106 123 160
8.747 -33.006 202.77 123 135 154
9.5888 -33.011 202.89 101 121 148
10.43 -33.021 203.03 122 132 158
11.271 -33.036 203.21 119 133 154
12.12 -33.01 203.11 121 131 153
12.964 -33.012 203.19 118 131 152
13.81 -33.001 203.18 91 96 107
14.652 -33.035 203.45 66 47 30
15.5 -32.993 203.23 60 42 27
16.337 -33.54 206.82 63 44 26
17.198 -33.617 207.35 47 46 45
18.064 -33.734 208.14 63 67 73
18.928 -33.703 207.96 83 91 105
19.828 -34.075 210.38 73 85 110
20.681 -33.881 209.14 100 108 125
21.544 -33.828 208.8 100 111 128
22.441 -33.989 209.84 100 111 125
23.308 -33.95 209.58 99 112 124
24.173 -33.907 209.28 94 109 121
25.052 -33.933 209.43 100 110 123
25.9 -33.837 208.78 100 109 126
26.822 -34.004 209.82 97 109 129
27.702 -34.013 209.84 99 109 125
28.598 -34.063 210.12 97 109 122
29.496 -34.114 210.39 68 91 118
30.394 -34.156 210.6 93 106 123
31.263 -34.126 210.34 97 105 123
32.154 -34.146 210.39 93 103 119
33.03 -34.131 210.21 93 105 119
33.93 -34.165 210.35 93 103 119
34.836 -34.205 210.51 79 96 114
35.835 -34.404 211.69 88 100 113
36.734 -34.417 211.67 87 99 116
37.754 -34.621 212.87 72 84 106
38.555 -34.473 211.78 89 97 111
39.444 -34.465 211.6 87 98 109
40.355 -34.489 211.62 87 98 106
41.322 -34.587 212.11 85 95 105
41.83 -34.072 208.65 84 94 109
41.171 -32.11 195.87 81 91 104
39.127 -28.575 173 147 160 178
39.561 -28.213 170.53 140 143 161
40.608 -28.58 172.74 89 112 125
41.805 -29.094 175.88 154 175 204
43.401 -30.009 181.58 128 140 162
44.887 -30.756 186.18 157 171 201
46.495 -31.585 191.3 130 146 167
47.805 -32.074 194.22 134 147 176
49.242 -32.659 197.75 135 150 182
50.918 -33.44 202.51 139 153 185
52.066 -33.694 203.89 134 154 180
53.304 -34.017 205.71 138 156 179
54.691 -34.455 208.23 140 154 180
56.092 -34.884 210.69 142 157 190
57.067 -34.936 210.75 137 157 185
58.54 -35.394 213.37 136 145 157
59.847 -35.698 215 123 126 135
60.98 -35.853 215.67 90 85 98
62.414 -36.231 217.74 76 78 92
63.3 -36.182 217.1 66 73 86
64.327 -36.237 217.12 63 72 88
65.231 -36.203 216.56 62 73 82
66.265 -36.26 216.57 54 65 78
67.835 -36.688 218.89 55 68 85
68.338 -36.371 216.54 63 71 82
69.72 -36.655 217.93 54 66 80
70.98 -36.848 218.74 63 71 79
72.068 -36.922 218.8 62 71 81
72.945 -36.859 218 61 69 84
73.952 -36.88 217.71 62 70 80
75.052 -36.956 217.76 59 70 82
76.082 -36.987 217.51 60 69 80
77.92 -37.498 220.2 60 66 81
79.049 -37.576 220.22 59 67 81
80.04 -37.572 219.73 55 62 78
81.391 -37.773 220.47 59 68 82
82.192 -37.659 219.28 57 67 75
83.275 -37.704 219.05 56 65 75
84.917 -38.05 220.63 56 67 78
85.947 -38.058 220.16 55 65 76
88.452 -38.842 224.35 55 63 76
89.447 -38.82 223.66 54 61 77
90.434 -38.794 222.94 52 59 73
90.646 -38.378 219.87 51 58 73
94.756 -39.91 228.45 51 62 71
94.393 -39.208 223.65 52 59 72
94.741 -38.867 221.01 50 58 72
97.054 -39.473 223.99 52 58 72
97.68 -39.268 222.14 51 59 70
99.08 -39.428 222.44 0 0 0
101.06 -39.85 224.27 0 0 0
102.23 -39.894 223.86 0 0 0
103.35 -39.91 223.28 0 0 0
104.8 -40.076 223.56 0 0 0
106.32 -40.267 223.97 0 0 0
-64.029 -34.389 185.37 91 124 152
-63.465 -34.524 186.86 95 107 149
-62.216 -34.374 186.73 100 127 161
-61.221 -34.328 187.18 116 133 158
-60.297 -34.312 187.79 121 136 161
-59.178 -34.21 187.9 123 138 164
-58.099 -34.124 188.08 120 140 169
-56.783 -33.929 187.62 123 140 170
-56.649 -34.262 190.23 123 143 170
-55.672 -34.219 190.64 129 139 168
-53.784 -33.754 188.56 129 139 168
-53.258 -33.914 190.14 125 144 172
-51.853 -33.663 189.28 130 145 174
-50.757 -33.552 189.24 128 146 171
-49.947 -33.578 190 132 148 179
-49.005 -33.539 190.36 132 147 175
-48.056 -33.495 190.69 131 149 178
-46.899 -33.346 190.37 124 147 176
-46.042 -33.346 190.93 134 149 178
-45.078 -33.291 191.16 137 150 180
-44.084 -33.218 191.26 136 153 181
-43.069 -33.132 191.28 138 155 185
-42.077 -33.056 191.34 138 151 181
-41.442 -33.175 192.58 96 124 160
-34.304 -29.674 171.64 142 161 189
-27.264 -26.122 150.26 95 107 113
-25.986 -25.771 148.48 94 96 98
-25.251 -25.725 148.57 92 100 99
-23.68 -25.182 145.57 255 255 255
-22.476 -24.843 143.82 255 255 255
-21.84 -24.84 144.15 131 145 160
-21.22 -24.848 144.53 88 100 103
-20.556 -24.828 144.73 85 93 95
-19.916 -24.822 145.02 79 87 86
-19.157 -24.739 144.81 81 84 82
-18.623 -24.802 145.52 87 87 87
-17.762 -24.647 144.85 97 97 102
-17.162 -24.666 145.27 201 191 200
-17.047 -25.027 147.84 253 254 255
-16.518 -25.105 148.63 255 255 255
-15.873 -25.102 148.89 255 255 255
-15.479 -25.285 150.34 253 255 255
-14.859 -25.305 150.74 222 242 255
-14.537 -25.557 152.62 186 203 231
-14.087 -25.718 153.92 161 171 196
-13.873 -26.078 156.49 130 139 144
-13.967 -26.71 160.81 82 88 86
-14.314 -27.584 166.69 120 125 126
-16.773 -30.33 184.63 131 152 177
-18.223 -32.313 197.7 131 148 177
-17.372 -32.299 197.91 107 111 130
-16.31 -32.089 196.84 134 131 139
-15.527 -32.134 197.42 99 104 104
-14.663 -32.104 197.5 87 91 88
-13.762 -32.034 197.32 137 152 173
-13.012 -32.117 198.12 140 155 181
-12.127 -32.061 198.02 139 154 182
-11.265 -32.028 198.05 140 153 178
-10.524 -32.13 198.96 140 153 182
-9.5935 -32.018 198.46 139 154 188
-8.8101 -32.076 199.07 136 149 176
-7.9197 -32.005 198.83 134 151 177
-7.1265 -32.055 199.37 138 148 178
-6.2573 -32.007 199.27 135 149 180
-5.397 -31.968 199.22 136 147 174
-4.5697 -31.975 199.46 134 148 177
-3.8163 -32.093 200.43 131 148 176
-2.9368 -32.025 200.16 135 145 168
-2.0963 -32.015 200.28 129 145 172
-1.2771 -32.041 200.62 132 143 168
-0.43654 -32.032 200.72 129 142 172
0.40838 -32.014 200.77 115 135 150
1.2323 -32.037 201.07 125 137 162
2.0194 -32.14 201.9 129 143 168
2.8582 -32.141 202.04 130 141 162
3.7162 -32.099 201.9 127 138 162
4.6019 -31.981 201.25 126 137 162
5.365 -32.178 202.68 68 99 150
6.2211 -32.137 202.52 82 99 149
7.0723 -32.105 202.42 120 134 158
7.9476 -31.985 201.72 77 99 146
8.7715 -32.038 202.17 118 134 157
9.5726 -32.202 203.35 62 91 145
10.435 -32.114 202.85 119 137 156
11.275 -32.128 203.02 121 134 154
12.122 -32.099 202.9 119 132 154
12.961 -32.127 203.15 115 133 156
13.806 -32.116 203.14 80 81 90
14.646 -32.167 203.53 62 46 30
15.494 -32.103 203.16 61 44 24
16.329 -32.689 207.1 47 43 36
17.19 -32.763 207.63 48 45 43
18.06 -32.965 209.01 59 66 72
18.913 -32.728 207.45 86 92 104
19.782 -32.799 207.94 88 102 121
20.673 -33.011 209.37 100 110 125
21.524 -32.876 208.47 101 111 131
22.427 -33.08 209.83 100 111 124
23.29 -33.025 209.45 103 113 133
24.175 -33.08 209.81 98 113 124
25.055 -33.101 209.92 102 112 129
25.931 -33.104 209.92 102 110 126
26.823 -33.156 210.23 101 110 129
27.702 -33.16 210.22 98 109 127
28.585 -33.174 210.26 99 110 126
29.431 -33.091 209.65 76 87 120
30.416 -33.347 211.3 95 103 122
31.234 -33.199 210.25 96 109 119
32.157 -33.289 210.77 97 108 121
33.104 -33.414 211.53 96 105 121
33.925 -33.289 210.61 94 104 120
34.845 -33.354 210.94 72 92 114
35.775 -33.428 211.34 89 101 118
36.599 -33.322 210.52 92 102 118
37.616 -33.525 211.76 90 98 115
38.653 -33.742 213.07 87 97 111
39.439 -33.58 211.87 85 99 111
40.382 -33.647 212.18 87 99 110
41.211 -33.557 211.44 87 97 110
41.402 -32.655 205.31 84 95 110
40.093 -29.958 187.32 63 76 101
38.586 -27.202 168.96 152 171 198
39.124 -26.991 167.43 92 122 152
39.864 -27.02 167.48 136 149 168
40.631 -27.076 167.7 132 143 171
41.356 -27.084 167.6 134 149 171
42.151 -27.163 167.96 136 147 177
42.983 -27.273 168.52 135 150 178
43.761 -27.326 168.7 136 147 181
44.567 -27.402 169.02 135 150 177
45.663 -27.741 171.05 135 152 179
47.006 -28.284 174.41 136 154 176
48.482 -28.917 178.35 151 170 198
50.482 -29.968 185 139 154 178
52.297 -30.816 190.3 147 168 188
53.922 -31.469 194.31 136 147 177
55.735 -32.243 199.09 136 151 176
56.916 -32.489 200.41 130 146 178
58.699 -33.185 204.65 134 145 170
59.762 -33.312 205.18 132 147 174
61.343 -33.814 208.12 129 146 173
62.038 -33.658 206.8 134 147 170
63.844 -34.291 210.56 128 143 163
65.648 -34.898 214.13 110 121 130
67.574 -35.563 218.06 103 99 109
67.871 -35.121 214.85 53 61 73
68.82 -35.12 214.47 14 22 38
70.829 -35.798 218.43 10 16 22
71.758 -35.772 217.86 11 12 16
72.471 -35.612 216.44 10 12 14
73.94 -35.917 217.97 10 11 15
75.002 -35.969 217.87 9 11 14
76.084 -36.03 217.83 10 13 18
77.427 -36.24 218.71 10 15 24
79.098 -36.63 220.71 31 41 59
79.202 -36.128 217.08 50 60 74
81.165 -36.668 220 59 68 79
83.278 -37.272 223.29 57 70 81
84.008 -37.117 221.82 45 54 74
84.782 -36.99 220.51 51 65 75
85.325 -36.746 218.47 56 65 79
86.991 -37.084 220.03 56 65 77
88.76 -37.464 221.84 56 63 81
89.873 -37.506 221.54 54 63 73
92.234 -38.158 225 56 63 73
92.411 -37.736 221.81 55 62 74
93.086 -37.562 220.15 49 57 75
95.678 -38.295 224.03 52 59 70
96.588 -38.227 223 53 62 74
98.832 -38.772 225.69 52 61 71
99.746 -38.701 224.6 0 0 0
100.29 -38.465 222.52 0 0 0
101.65 -38.594 222.64 0 0 0
103.42 -38.901 223.81 0 0 0
104.28 -38.803 222.54 0 0 0
106.19 -39.157 223.96 0 0 0
-64.937 -33.855 187.73 114 130 154
-63.698 -33.717 187.66 118 129 157
-62.266 -33.497 187.09 115 130 160
-60.925 -33.31 186.7 63 95 147
-60.037 -33.307 187.39 118 134 164
-59.606 -33.498 189.22 121 138 164
-57.932 -33.161 187.9 122 139 161
-57.718 -33.448 190.29 124 138 167
-55.891 -33.035 188.48 125 140 171
-54.894 -32.98 188.8 127 142 173
-53.9 -32.925 189.12 127 143 171
-53.052 -32.934 189.81 130 146 174
-51.917 -32.812 189.69 133 146 171
-51.113 -32.841 190.49 129 149 170
-49.866 -32.662 189.99 131 148 179
-48.981 -32.651 190.52 133 147 177
-47.809 -32.5 190.18 133 147 182
-47.005 -32.526 190.92 115 141 179
-46.21 -32.558 191.68 134 150 178
-45.003 -32.383 191.15 138 155 182
-44.046 -32.33 191.37 139 151 184
-43.178 -32.322 191.86 138 154 183
-42.227 -32.271 192.06 144 153 184
-41.18 -32.166 191.92 102 87 106
-36.173 -29.913 178.22 144 158 185
-27.935 -25.814 152.76 135 159 189
-25.547 -24.857 147.09 75 82 80
-24.345 -24.544 145.47 76 82 84
-23.55 -24.455 145.26 255 255 255
-22.846 -24.416 145.36 255 255 255
-22.189 -24.404 145.63 255 255 255
-21.275 -24.237 144.9 111 116 129
-20.466 -24.128 144.53 103 110 114
-19.698 -24.043 144.29 111 121 125
-19.007 -24.002 144.35 107 116 118
-18.469 -24.059 145.03 123 123 127
-18.009 -24.17 146.05 249 245 247
-17.358 -24.157 146.27 255 255 255
-16.843 -24.238 147.08 255 255 255
-16.357 -24.341 148.04 255 255 255
-15.771 -24.377 148.57 248 255 255
-15.501 -24.644 150.59 227 247 255
-15.12 -24.84 152.16 197 214 233
-14.734 -25.041 153.75 172 186 204
-14.171 -25.113 154.49 126 137 139
-14.156 -25.622 158.11 83 92 88
-14.299 -26.279 162.72 118 123 124
-14.44 -26.966 167.53 131 150 167
-16.766 -29.527 184.76 134 149 179
-18.161 -31.408 197.53 108 141 165
-17.158 -31.259 196.84 114 137 148
-16.381 -31.307 197.45 200 222 244
-15.437 -31.203 197.04 142 171 176
-14.603 -31.2 197.29 88 92 81
-13.842 -31.266 198.01 140 152 177
-12.973 -31.229 198.03 143 154 184
-12.093 -31.179 197.95 138 154 180
-11.245 -31.161 198.07 139 155 184
-10.45 -31.199 198.57 140 156 183
-9.6212 -31.202 198.83 139 149 184
-8.7779 -31.189 198.97 141 153 178
-7.9031 -31.137 198.85 134 152 181
-7.1627 -31.251 199.83 135 149 177
-6.2557 -31.156 199.4 136 149 177
-5.4183 -31.149 199.56 134 148 174
-4.5473 -31.095 199.39 133 150 172
-3.7148 -31.093 199.57 133 148 172
-2.8597 -31.057 199.51 134 150 174
-2.1319 -31.22 200.79 133 146 171
-1.2829 -31.197 200.81 129 142 169
-0.48713 -31.266 201.44 128 137 166
0.42371 -31.132 200.69 117 126 124
1.2442 -31.159 201.03 128 142 166
2.0429 -31.233 201.68 129 142 166
2.888 -31.217 201.71 129 142 165
3.7117 -31.248 202.06 126 141 164
4.5884 -31.156 201.56 129 140 163
5.3962 -31.231 202.19 122 134 160
6.257 -31.169 201.89 92 101 139
7.0629 -31.267 202.67 94 98 148
7.9294 -31.18 202.18 106 131 152
8.7415 -31.279 202.95 70 89 144
9.5884 -31.257 202.89 73 93 136
10.411 -31.348 203.6 121 133 151
11.268 -31.28 203.21 117 133 155
12.107 -31.303 203.44 123 132 154
12.953 -31.287 203.4 120 132 156
13.8 -31.255 203.24 70 66 65
14.643 -31.257 203.31 57 44 29
15.486 -31.264 203.41 57 43 23
16.32 -31.85 207.47 60 44 27
17.182 -31.875 207.68 48 46 43
18.053 -32.102 209.27 61 69 75
18.904 -31.845 207.53 87 95 108
19.788 -32.068 209.08 77 101 117
20.659 -32.094 209.27 99 115 129
21.525 -32.069 209.11 102 110 123
22.416 -32.186 209.91 102 114 125
23.262 -32.056 209 104 116 130
24.169 -32.216 210.09 96 107 128
25.048 -32.232 210.18 101 115 128
25.916 -32.205 209.97 101 113 131
26.802 -32.238 210.16 102 111 129
27.654 -32.169 209.65 100 109 126
28.543 -32.208 209.87 101 112 127
29.416 -32.2 209.76 94 101 119
30.299 -32.214 209.8 97 110 122
31.216 -32.3 210.33 96 107 124
32.114 -32.336 210.5 88 104 122
33.017 -32.377 210.7 95 106 120
33.894 -32.367 210.54 95 108 119
34.858 -32.507 211.41 63 89 110
35.685 -32.407 210.63 92 105 120
36.678 -32.578 211.69 93 104 117
37.546 -32.544 211.34 91 101 118
38.586 -32.763 212.72 90 100 117
39.468 -32.742 212.45 89 102 114
40.368 -32.747 212.35 88 100 117
41.064 -32.488 210.44 84 100 115
41.119 -31.447 203.2 88 97 110
39.494 -28.455 182.68 80 99 119
38.544 -26.446 168.87 160 171 208
39.15 -26.319 167.87 105 110 156
39.821 -26.269 167.39 144 157 187
40.562 -26.297 167.44 142 153 180
41.323 -26.343 167.6 140 151 182
42.061 -26.364 167.58 136 148 175
42.814 -26.398 167.64 136 153 175
43.515 -26.38 167.35 136 149 174
44.427 -26.558 168.38 135 150 172
45.172 -26.575 168.31 134 151 180
45.964 -26.633 168.51 137 151 176
46.662 -26.608 168.15 135 148 175
47.465 -26.67 168.36 136 148 179
48.213 -26.685 168.26 131 146 171
49.29 -26.96 169.89 127 147 171
50.306 -27.176 171.1 129 141 171
51.124 -27.231 171.25 128 143 172
52.716 -27.859 175.2 143 159 183
54.47 -28.579 179.75 126 140 164
55.715 -28.905 181.66 124 137 161
56.309 -28.764 180.45 124 137 162
57.301 -28.901 181.07 122 134 157
58.025 -28.852 180.46 115 131 155
58.925 -28.92 180.62 116 131 153
60.798 -29.614 184.9 116 129 151
63.568 -30.853 192.76 45 36 38
64.517 -30.911 192.8 113 113 129
69.124 -33.208 207.55 9 12 16
71.449 -34.051 212.7 26 35 56
71.533 -33.539 208.94 99 102 115
73.465 -34.119 212.33 91 90 102
75.958 -35 217.66 77 76 85
77.159 -35.125 218.03 22 24 32
78.904 -35.547 220.32 11 12 20
79.701 -35.439 219.15 7 8 12
81.201 -35.71 220.43 6 8 13
81.917 -35.559 218.96 12 22 34
83.406 -35.814 220.11 54 64 79
84.162 -35.686 218.78 36 44 67
85.528 -35.869 219.43 40 52 72
86.379 -35.789 218.39 53 59 72
88.701 -36.434 221.97 56 65 77
90.112 -36.619 222.59 57 63 76
91.344 -36.713 222.62 54 64 74
92.873 -36.944 223.5 54 62 74
92.73 -36.393 219.42 52 61 73
94.296 -36.638 220.37 55 62 75
96.357 -37.1 222.66 55 61 76
97.361 -37.078 221.9 46 53 71
99.098 -37.378 223.14 0 0 0
100.03 -37.322 222.14 0 0 0
101.75 -37.602 223.22 0 0 0
103.43 -37.86 224.15 0 0 0
103.91 -37.609 221.92 0 0 0
106.14 -38.086 224.17 0 0 0
-64.62 -32.824 187.23 112 129 158
-63.876 -32.883 188.32 109 123 155
-62.001 -32.495 186.7 87 123 163
-60.742 -32.344 186.49 83 116 157
-60.032 -32.413 187.61 119 136 163
-59.058 -32.375 188.07 121 137 163
-57.97 -32.288 188.23 124 138 165
-56.846 -32.184 188.26 124 137 169
-55.678 -32.058 188.15 123 142 169
-54.961 -32.124 189.21 127 144 165
-53.764 -31.982 188.97 129 144 171
-52.587 -31.846 188.75 131 142 170
-52.189 -32.054 190.69 133 145 175
-50.778 -31.808 189.76 132 147 172
-49.708 -31.713 189.76 132 150 173
-49.564 -32.045 192.46 134 149 177
-47.759 -31.604 190.25 133 152 179
-47.075 -31.687 191.35 111 145 178
-45.917 -31.542 191 137 152 184
-45.045 -31.534 191.5 136 152 185
-43.692 -31.285 190.45 138 153 183
-43.349 -31.54 192.63 140 155 183
-42.106 -31.342 191.87 140 154 181
-41.229 -31.327 192.3 116 111 87
-36.107 -29.076 178.19 142 155 188
-27.905 -25.11 152.82 143 162 183
-25.421 -24.128 146.8 90 92 93
-24.19 -23.806 145.06 252 247 231
-23.391 -23.715 144.82 255 255 255
-22.811 -23.747 145.38 255 255 255
-22.177 -23.749 145.74 255 255 255
-21.294 -23.604 145.12 255 255 255
-20.542 -23.532 144.98 211 216 232
-19.881 -23.514 145.18 209 214 230
-19.249 -23.513 145.49 252 253 255
-18.631 -23.521 145.85 255 255 255
-17.791 -23.387 145.26 255 255 255
-17.111 -23.353 145.33 255 255 255
-16.699 -23.496 146.58 252 255 255
-16.368 -23.699 148.24 224 246 255
-15.913 -23.825 149.37 199 220 244
-15.493 -23.981 150.7 173 185 210
-15.357 -24.347 153.45 142 148 169
-14.826 -24.439 154.34 127 130 136
-13.896 -24.235 153.24 118 125 124
-13.72 -24.601 155.99 132 132 132
-13.976 -25.322 161.15 75 82 76
-14.418 -26.224 167.56 131 151 171
-16.988 -28.913 186.17 134 153 178
-17.927 -30.362 196.35 91 103 130
-17.093 -30.357 196.62 110 116 136
-16.221 -30.319 196.65 101 105 95
-15.567 -30.476 198.01 95 100 90
-14.526 -30.282 196.96 88 91 86
-13.851 -30.428 198.23 144 157 190
-12.956 -30.366 198.07 140 155 182
-12.047 -30.288 197.79 142 154 180
-11.278 -30.35 198.47 143 154 183
-10.411 -30.311 198.44 142 153 180
-9.5611 -30.289 198.53 138 151 181
-8.7497 -30.31 198.9 139 152 179
-7.9083 -30.297 199.04 134 150 176
-7.0712 -30.289 199.2 138 150 176
-6.1811 -30.215 198.89 136 150 173
-5.3628 -30.229 199.19 134 151 175
-4.5529 -30.255 199.58 134 149 171
-3.6938 -30.216 199.49 131 148 174
-2.8569 -30.206 199.61 133 145 175
-2.0041 -30.171 199.54 135 145 174
-1.2602 -30.308 200.68 131 146 171
-0.40619 -30.274 200.6 81 72 99
0.40102 -30.32 201.09 127 140 166
1.2469 -30.3 201.1 130 142 163
2.0685 -30.325 201.43 127 142 166
2.9497 -30.23 200.9 129 141 166
3.726 -30.357 201.93 128 140 165
4.5854 -30.305 201.69 128 138 160
5.4699 -30.181 200.94 124 138 161
6.2686 -30.276 201.72 126 139 163
7.0575 -30.417 202.83 126 134 159
7.9443 -30.265 201.87 123 134 160
8.7601 -30.34 202.49 122 136 155
9.5908 -30.373 202.82 117 132 155
10.432 -30.369 202.88 121 132 163
11.277 -30.345 202.78 119 133 149
12.108 -30.4 203.25 120 132 157
12.953 -30.385 203.21 118 131 152
13.796 -30.37 203.16 63 55 49
14.638 -30.376 203.26 61 45 29
15.48 -30.383 203.36 56 39 22
16.313 -30.998 207.75 62 44 27
17.176 -31.21 209.29 45 44 41
18.034 -30.951 207.49 67 73 80
18.899 -31.013 207.95 86 95 111
19.775 -31.151 208.94 68 92 118
20.647 -31.188 209.23 101 113 126
21.526 -31.252 209.68 101 114 129
22.378 -31.149 208.95 105 117 133
23.284 -31.329 210.22 103 117 128
24.162 -31.344 210.31 100 111 129
25.04 -31.355 210.37 103 114 130
25.913 -31.349 210.31 101 117 130
26.746 -31.219 209.36 103 113 132
27.608 -31.19 209.11 101 112 131
28.525 -31.306 209.89 96 108 125
29.387 -31.273 209.6 96 107 124
30.284 -31.323 209.9 99 110 125
31.164 -31.329 209.87 97 108 125
32.105 -31.455 210.69 98 107 125
32.976 -31.436 210.48 96 108 127
33.941 -31.584 211.44 95 106 122
34.791 -31.524 210.93 74 89 116
35.699 -31.56 211.09 83 98 119
36.625 -31.622 211.42 92 106 122
37.541 -31.663 211.6 92 104 117
38.567 -31.855 212.83 95 106 120
39.424 -31.802 212.32 94 104 115
40.409 -31.919 213.02 91 101 115
41.067 -31.617 210.75 91 100 113
40.707 -30.102 199.97 87 96 112
39.478 -27.674 182.8 83 91 113
38.515 -25.706 168.87 155 175 205
39.082 -25.54 167.57 109 127 170
39.782 -25.525 167.33 146 162 189
40.518 -25.548 167.34 144 161 186
41.236 -25.551 167.21 137 155 179
42.049 -25.646 167.72 142 151 185
42.78 -25.658 167.64 135 150 182
43.549 -25.704 167.79 137 152 175
44.274 -25.708 167.64 138 153 180
45.053 -25.759 167.81 135 147 178
45.807 -25.784 167.81 133 149 176
46.573 -25.819 167.85 131 147 171
47.41 -25.909 168.27 129 145 172
48.178 -25.94 168.28 131 145 173
48.938 -25.963 168.23 128 143 173
49.751 -26.025 168.44 126 143 169
50.528 -26.057 168.44 125 139 166
51.425 -26.175 169.01 123 139 168
52.187 -26.191 168.88 124 137 162
52.932 -26.195 168.66 122 134 161
53.673 -26.196 168.41 120 133 159
54.453 -26.222 168.33 117 130 155
55.274 -26.274 168.42 114 127 150
55.974 -26.247 167.96 111 126 144
56.936 -26.384 168.61 110 124 145
58.051 -26.611 169.87 112 123 145
58.832 -26.627 169.68 109 119 145
60.988 -27.46 175.02 129 150 177
62.247 -27.74 176.59 108 121 141
63.304 -27.894 177.29 104 119 140
65.819 -28.866 183.5 67 50 50
69.081 -30.221 192.24 14 14 22
74.479 -32.699 208.48 73 84 96
75.124 -32.54 206.99 110 121 149
77.634 -33.374 212.12 108 122 151
80.132 -34.175 217.01 106 123 143
81.723 -34.485 218.6 85 80 87
83.209 -34.733 219.75 61 52 66
84.176 -34.715 219.12 10 11 24
85.308 -34.777 219.02 26 32 52
87.571 -35.385 222.5 50 55 71
88.589 -35.381 221.93 46 56 75
88.348 -34.785 217.46 58 66 76
90.759 -35.434 221.15 57 63 82
93.204 -36.08 224.8 55 63 76
94.204 -36.058 224.06 56 62 77
95.119 -35.997 223.06 56 64 77
96.294 -36.052 222.8 56 63 78
97.743 -36.223 223.28 52 63 74
97.498 -35.665 219.05 0 0 0
99.692 -36.151 221.53 0 0 0
101.96 -36.654 224.1 0 0 0
102.31 -36.354 221.52 0 0 0
105.92 -37.389 227.43 0 0 0
106.04 -36.995 224.23 0 0 0
-64.859 -32.011 188.02 107 123 155
-62.923 -31.615 186.3 44 73 129
-61.951 -31.581 186.81 88 91 141
-61.06 -31.578 187.5 55 81 134
-60.038 -31.523 187.86 120 133 167
-58.847 -31.399 187.77 113 136 163
-57.869 -31.358 188.2 125 137 165
-56.926 -31.331 188.7 124 139 169
-55.809 -31.23 188.72 70 96 154
-54.237 -30.936 187.5 130 144 172
-53.841 -31.134 189.41 127 148 174
-52.593 -30.971 188.99 129 144 177
-52.048 -31.109 190.51 130 148 173
-51.319 -31.17 191.52 131 143 176
-49.658 -30.816 189.83 135 149 178
-48.776 -30.806 190.36 135 148 174
-47.738 -30.723 190.4 133 149 180
-46.935 -30.748 191.14 89 127 174
-45.798 -30.616 190.84 138 151 184
-44.803 -30.548 190.94 135 152 185
-44.016 -30.579 191.69 140 156 185
-42.994 -30.495 191.68 139 152 187
-42.114 -30.48 192.1 138 155 179
-40.104 -29.895 188.72 142 158 184
-30.731 -25.525 159.96 145 156 194
-26.798 -23.849 149.13 190 202 233
-25.104 -23.302 145.83 216 222 237
-23.807 -22.951 143.83 255 255 255
-23.294 -23.015 144.62 255 255 255
-22.533 -22.945 144.49 250 255 255
-22.137 -23.077 145.73 255 255 255
-21.504 -23.079 146.08 255 255 255
-20.843 -23.065 146.31 255 255 255
-20.198 -23.059 146.6 255 255 255
-19.064 -22.76 144.87 255 255 255
-18.299 -22.675 144.6 255 255 255
-17.486 -22.558 144.09 255 255 255
-17.063 -22.684 145.26 239 254 255
-16.691 -22.848 146.68 193 218 249
-16.284 -22.995 147.99 163 181 204
-15.818 -23.109 149.06 146 158 166
-15.65 -23.431 151.58 133 143 148
-15.445 -23.741 154.02 123 131 136
-14.842 -23.78 154.56 106 111 115
-13.672 -23.407 152.24 106 111 106
-13.184 -23.526 153.33 105 111 111
-13.381 -24.172 158.11 79 85 84
-14.71 -25.728 169.3 133 151 177
-17.817 -28.772 190.96 132 153 178
-17.941 -29.53 196.6 98 98 100
-17.166 -29.575 197.22 132 150 176
-16.322 -29.562 197.42 135 156 180
-15.464 -29.538 197.53 96 100 89
-14.544 -29.457 197.23 98 100 95
-13.833 -29.565 198.27 141 155 181
-12.978 -29.542 198.37 140 154 181
-12.094 -29.49 198.27 142 155 184
-11.284 -29.509 198.65 140 154 184
-10.393 -29.447 198.45 139 155 178
-9.62 -29.507 199.12 138 155 181
-8.6921 -29.4 198.59 138 150 177
-7.8601 -29.396 198.78 136 150 176
-7.0491 -29.417 199.15 134 147 178
-6.2668 -29.475 199.78 137 149 175
-5.3782 -29.403 199.47 134 149 172
-4.5525 -29.408 199.7 133 148 171
-3.6908 -29.366 199.59 133 149 174
-2.9171 -29.445 200.35 133 150 168
-2.0457 -29.387 200.11 127 143 170
-1.222 -29.398 200.36 93 85 97
-0.43232 -29.467 201.02 129 145 165
0.42545 -29.426 200.89 132 141 166
1.2585 -29.426 201.05 129 142 167
2.0811 -29.447 201.34 126 142 164
2.9372 -29.403 201.17 130 140 162
3.7626 -29.42 201.43 126 143 164
4.5752 -29.471 201.93 126 142 160
5.4173 -29.456 201.95 126 139 165
6.2633 -29.43 201.88 126 141 163
7.0576 -29.551 202.86 125 138 158
7.8952 -29.558 203.02 124 135 158
8.7855 -29.383 201.85 101 121 146
9.5952 -29.484 202.68 121 135 159
10.435 -29.48 202.74 120 136 161
11.279 -29.456 202.64 124 134 157
12.105 -29.53 203.26 122 135 154
12.953 -29.483 202.98 118 132 154
13.797 -29.456 202.85 66 53 44
14.629 -29.551 203.6 62 49 30
15.473 -29.541 203.57 55 42 25
16.307 -30.029 207.18 63 44 28
17.167 -30.193 208.41 45 49 47
18.026 -30.079 207.62 67 75 84
18.886 -30.083 207.67 87 94 107
19.754 -30.152 208.19 63 87 116
20.635 -30.285 209.18 100 112 127
21.502 -30.282 209.16 102 113 127
22.371 -30.287 209.2 103 113 131
23.241 -30.293 209.24 104 114 128
24.096 -30.238 208.83 102 114 129
25.026 -30.458 210.41 102 116 136
25.899 -30.453 210.35 97 107 130
26.758 -30.407 209.99 79 103 124
27.637 -30.419 210.03 103 114 129
28.51 -30.414 209.96 101 115 128
29.39 -30.426 210 100 112 132
30.32 -30.544 210.8 66 76 110
31.21 -30.565 210.89 89 103 127
32.024 -30.437 209.89 102 112 126
32.911 -30.454 209.94 102 113 116
33.856 -30.57 210.69 107 111 114
34.836 -30.73 211.77 109 113 105
35.692 -30.68 211.31 113 112 103
36.553 -30.643 210.94 115 113 101
37.475 -30.695 211.2 113 115 104
38.428 -30.784 211.73 112 111 99
39.276 -30.727 211.2 118 117 96
40.137 -30.692 210.81 123 118 97
40.874 -30.507 209.34 116 109 106
40.622 -29.169 199.51 95 104 109
39.463 -26.894 182.91 93 103 125
38.475 -24.955 168.77 154 171 201
39.086 -24.843 167.82 82 113 150
39.794 -24.836 167.64 147 159 188
40.511 -24.838 167.51 146 159 188
41.199 -24.812 167.17 140 155 180
41.99 -24.884 167.54 138 154 180
42.781 -24.953 167.87 139 152 181
43.482 -24.936 167.58 136 150 179
44.257 -24.984 167.75 134 152 181
44.959 -24.968 167.46 138 151 175
45.849 -25.107 168.27 135 146 177
46.626 -25.149 168.37 135 146 174
47.428 -25.207 168.59 129 143 171
48.101 -25.164 168.08 130 143 168
48.897 -25.215 168.23 130 139 169
49.681 -25.254 168.29 128 141 169
50.468 -25.294 168.34 125 141 167
51.358 -25.403 168.89 126 137 164
52.1 -25.407 168.68 124 135 161
52.899 -25.448 168.72 119 135 155
53.683 -25.476 168.67 120 133 155
54.532 -25.547 168.91 118 132 155
55.291 -25.556 168.71 115 131 160
56.096 -25.595 168.71 113 127 154
57 -25.691 169.1 113 126 151
57.863 -25.759 169.29 110 124 145
58.564 -25.729 168.79 109 120 142
59.463 -25.814 169.09 109 121 144
60.21 -25.81 168.74 107 120 138
61.156 -25.917 169.17 106 118 134
61.878 -25.897 168.71 107 117 132
63.386 -26.302 171.18 104 114 133
65.612 -27.074 176.18 118 135 157
67.629 -27.711 180.22 99 112 130
71.162 -29.108 189.47 115 117 120
74.785 -30.507 198.68 74 84 98
77.853 -31.585 205.65 99 111 130
79.478 -31.923 207.5 96 110 127
82.271 -32.815 213.12 97 108 127
84.967 -33.634 218.2 97 107 130
85.176 -33.261 215.14 97 105 125
87.354 -33.81 218.34 88 98 109
89.461 -34.311 221.19 62 73 88
90.655 -34.386 221.13 61 67 80
93.107 -35.017 224.81 57 66 80
92.78 -34.414 220.17 56 63 76
94.846 -34.861 222.57 56 65 79
95.18 -34.556 219.93 54 64 77
96.938 -34.859 221.33 55 61 78
98.78 -35.188 222.88 0 0 0
100.55 -35.48 224.17 0 0 0
101.25 -35.326 222.5 0 0 0
103.32 -35.728 224.48 0 0 0
103.61 -35.416 221.76 0 0 0
105.99 -35.923 224.4 0 0 0
-64.081 -30.82 186.43 116 127 153
-63.377 -30.888 187.6 78 96 148
-62.05 -30.724 187.27 113 122 156
-61.001 -30.662 187.58 66 81 144
-60.057 -30.638 188.13 111 127 160
-59.43 -30.736 189.46 99 125 162
-58.187 -30.595 189.23 125 138 167
-56.649 -30.333 188.19 125 141 168
-55.817 -30.349 188.96 125 142 172
-54.851 -30.31 189.36 90 115 157
-53.95 -30.297 189.92 131 145 174
-53.031 -30.276 190.42 130 146 177
-51.898 -30.164 190.3 132 149 173
-51.269 -30.265 191.59 134 148 175
-49.56 -29.901 189.76 135 149 175
-48.708 -29.903 190.37 135 149 179
-47.681 -29.827 190.44 135 152 179
-46.787 -29.81 190.89 109 125 167
-45.77 -29.735 190.95 136 153 183
-44.713 -29.64 190.86 137 153 186
-44.059 -29.732 192.03 138 152 183
-42.855 -29.564 191.42 141 156 186
-41.884 -29.505 191.54 137 156 182
-37.496 -27.771 180.12 142 157 189
-28.324 -23.611 151.87 156 165 185
-26.786 -23.173 149.23 232 242 255
-24.634 -22.408 144.31 224 243 251
-23.898 -22.355 144.3 206 213 244
-23.306 -22.377 144.8 252 255 255
-22.377 -22.218 144.04 255 255 255
-21.699 -22.191 144.2 209 218 253
