-11.159 20.429 121.61 100 100 96
-10.448 20.295 121.04 99 102 93
-9.9511 20.327 121.42 102 99 94
-9.2692 20.209 120.93 100 97 90
-8.7497 20.221 121.19 99 98 94
-8.1774 20.189 121.19 97 97 93
-7.6131 20.163 121.21 96 94 90
-7.0002 20.091 120.97 98 97 89
-6.4572 20.081 121.08 98 96 92
-5.926 20.08 121.24 94 96 88
-5.3796 20.065 121.31 93 92 87
-4.7276 19.946 120.76 94 91 85
-4.2063 19.952 120.94 90 89 83
-3.6513 19.923 120.92 94 94 86
-3.1123 19.91 120.97 94 93 89
-2.6846 20.016 121.73 93 95 87
-2.0244 19.869 121 94 92 89
-1.4847 19.852 121.02 94 96 88
-1.0222 19.925 121.57 95 95 86
-0.45835 19.878 121.41 96 94 91
0.17411 19.743 120.72 96 96 89
0.67273 19.772 120.99 96 93 90
1.1576 19.821 121.38 95 93 90
1.7916 19.667 120.56 94 94 88
2.3449 19.617 120.36 93 92 85
2.8686 19.608 120.39 94 93 90
3.3015 19.738 121.25 93 93 87
3.1503 20.816 127.74 80 77 73
2.5255 22.777 139.47 76 75 72
2.7284 23.462 143.63 67 67 61
3.1579 23.796 145.7 55 51 45
3.5623 24.209 148.23 27 25 21
3.9622 24.671 151.06 8 6 6
4.0733 25.792 157.81 21 20 10
4.6838 25.924 158.66 25 21 11
6.1582 24.032 147.43 72 76 84
6.9362 23.649 145.19 19 15 10
7.5634 23.619 145.06 21 18 9
8.2182 23.504 144.41 23 19 10
8.8253 23.519 144.54 26 22 11
9.4418 23.504 144.48 27 24 14
10.042 23.544 144.75 29 26 14
10.668 23.491 144.45 33 29 16
11.278 23.497 144.5 34 30 17
11.885 23.513 144.61 36 32 16
12.508 23.446 144.21 37 33 16
13.115 23.463 144.32 38 35 17
13.729 23.426 144.09 38 34 18
14.334 23.459 144.28 38 35 17
14.941 23.487 144.44 37 31 20
15.553 23.446 144.18 36 33 18
16.163 23.42 144 37 33 17
16.77 23.459 144.21 37 32 17
17.379 23.483 144.33 38 32 17
17.986 23.449 144.09 33 30 15
18.574 23.166 142.36 29 25 15
19.097 22.348 137.43 38 31 18
19.61 21.787 134.04 38 35 20
20.105 21.296 131.06 124 123 129
20.566 20.745 127.73 126 132 143
20.921 19.791 121.98 136 139 154
21.232 18.851 116.33 134 142 161
21.687 18.693 115.33 77 86 101
22.139 18.555 114.45 78 87 98
22.675 18.726 115.4 52 57 66
23.165 18.723 115.31 71 79 92
23.66 18.741 115.34 75 83 96
24.177 18.813 115.7 75 85 96
24.651 18.766 115.34 76 86 95
25.174 18.844 115.72 75 87 98
25.676 18.868 115.77 74 86 95
26.171 18.872 115.7 77 84 96
26.725 18.996 116.34 71 84 96
27.223 19.001 116.26 75 86 99
27.756 19.07 116.57 75 84 96
28.282 19.121 116.76 74 83 95
28.804 19.161 116.88 74 84 101
29.316 19.182 116.89 73 83 96
29.89 19.299 117.45 73 81 95
30.399 19.31 117.39 74 84 99
30.931 19.352 117.51 75 82 96
31.418 19.33 117.24 72 84 92
31.989 19.423 117.64 70 79 94
32.461 19.38 117.25 71 79 93
33.026 19.459 117.56 73 83 96
33.567 19.503 117.67 74 80 94
34.165 19.613 118.15 72 81 96
34.704 19.647 118.19 72 80 94
35.253 19.693 118.28 72 80 89
35.819 19.753 118.46 70 78 90
36.303 19.723 118.11 70 78 90
37.013 19.932 119.13 70 79 93
37.559 19.963 119.13 70 79 86
38.113 20.001 119.15 69 79 91
38.575 19.947 118.64 69 80 96
39.179 20.031 118.92 70 77 90
39.716 20.049 118.82 68 78 92
40.333 20.139 119.12 69 76 88
41.001 20.27 119.65 67 75 88
41.658 20.387 120.09 67 76 89
42.147 20.356 119.68 66 73 87
42.904 20.55 120.55 65 74 89
43.422 20.54 120.25 65 75 88
43.997 20.577 120.22 65 74 88
44.574 20.615 120.17 65 75 91
45.127 20.632 120.01 65 74 87
45.81 20.748 120.4 65 76 90
46.61 20.946 121.24 61 73 86
47.209 20.991 121.21 64 72 85
47.775 21.011 121.04 63 71 84
48.504 21.145 121.49 63 73 85
49.031 21.135 121.14 64 73 85
49.929 21.378 122.18 64 72 85
50.548 21.427 122.13 63 71 89
51.146 21.46 122 63 73 84
51.803 21.53 122.05 63 69 85
52.568 21.668 122.48 63 70 83
53.317 21.792 122.81 59 70 84
53.88 21.796 122.49 60 66 81
54.854 22.052 123.52 0 0 0
55.745 22.251 124.23 0 0 0
59.763 24.3 134.95 35 32 22
61.888 25.184 139.31 38 34 22
62.626 25.244 139.19 0 0 0
63.397 25.32 139.15 0 0 0
64.125 25.37 138.96 0 0 0
64.932 25.463 138.99 0 0 0
65.523 25.437 138.38 0 0 0
66.28 25.5 138.23 0 0 0
67.13 25.611 138.33 0 0 0
68.057 25.761 138.62 0 0 0
68.615 25.715 137.87 0 0 0
69.398 25.787 137.73 0 0 0
71.215 26.381 140.29 0 0 0
77.7 29.299 154.87 0 0 0
78.987 29.576 155.69 0 0 0
80.071 29.748 155.95 0 0 0
-41.6 25.194 129.75 9 6 5
-42.194 25.757 133.15 10 6 5
-39.798 24.953 129.62 8 6 5
-40.036 25.361 132.22 7 5 4
-38.726 25.048 131.14 6 4 4
-39.321 25.637 134.68 8 5 4
-38.804 25.703 135.53 6 5 4
-38.339 25.796 136.52 6 5 3
-39.157 26.526 140.81 7 4 4
-38.381 26.475 141.05 8 4 4
-36.827 26.029 139.22 7 5 4
-35.616 25.748 138.22 6 4 2
-36.574 26.588 143.11 29 42 54
-34.946 26.087 140.94 25 22 18
-34.845 26.389 142.99 27 23 25
-33.417 25.981 141.27 27 25 23
-34.187 26.766 145.89 26 40 53
-34.453 27.292 149.15 29 25 22
-32.777 26.741 146.63 30 27 22
-30.81 26.007 143.11 32 28 26
-24.455 22.714 125.77 40 42 40
-22.375 21.836 121.37 82 84 85
-21.762 21.806 121.53 98 97 93
-21.04 21.709 121.33 100 97 95
-20.51 21.727 121.74 97 98 93
-19.805 21.636 121.55 99 93 92
-19.311 21.677 122.07 97 95 91
-18.42 21.462 121.19 96 93 89
-17.874 21.468 121.5 97 96 90
-17.345 21.483 121.86 101 96 89
-16.601 21.355 121.42 97 95 96
-15.97 21.299 121.38 98 96 92
-15.372 21.265 121.45 95 95 90
-14.645 21.139 121 97 98 91
-14.09 21.131 121.2 97 98 90
-13.572 21.151 121.54 97 96 87
-12.901 21.057 121.25 98 96 91
-12.426 21.108 121.76 100 97 92
-11.742 21 121.38 101 98 92
-11.117 20.933 121.22 99 98 91
-10.586 20.939 121.46 99 99 91
-10.029 20.926 121.58 100 98 89
-9.4191 20.866 121.44 99 97 91
-8.7346 20.74 120.92 101 98 91
-8.2681 20.799 121.44 96 98 92
-7.6673 20.741 121.29 99 94 90
-7.0139 20.632 120.85 98 96 88
-6.4706 20.621 120.95 97 96 87
-5.9123 20.595 120.97 99 95 88
-5.3558 20.569 120.98 96 95 90
-4.9234 20.666 121.69 94 95 87
-4.3028 20.575 121.31 95 93 88
-3.7647 20.566 121.41 95 90 87
-3.1614 20.485 121.09 94 94 81
-2.5902 20.436 120.94 91 92 85
-2.053 20.423 120.99 98 91 89
-1.5169 20.41 121.04 96 94 88
-1.0114 20.434 121.3 96 94 82
-0.51332 20.468 121.61 95 92 89
0.089145 20.369 121.15 95 92 88
0.6672 20.297 120.84 94 94 86
1.193 20.291 120.91 96 94 86
1.6967 20.317 121.15 93 94 90
2.2254 20.306 121.19 97 94 89
2.7567 20.291 121.19 94 94 90
3.2129 20.394 121.87 91 90 85
3.0893 21.459 128.12 79 78 73
2.5578 23.312 138.93 76 74 70
2.7134 24.096 143.56 67 64 61
3.1488 24.428 145.56 53 49 43
3.5662 24.826 147.95 29 25 23
3.9607 25.31 150.83 10 8 8
4.0525 26.5 157.81 20 18 9
4.4529 27.117 161.46 24 22 12
6.1085 24.771 147.88 73 79 86
6.927 24.282 145.09 18 15 10
7.5546 24.25 144.95 20 19 9
8.1995 24.163 144.49 22 18 9
8.7901 24.234 144.94 26 20 12
9.4268 24.158 144.52 27 23 12
10.043 24.143 144.46 29 26 12
10.664 24.108 144.28 32 26 16
11.272 24.12 144.37 34 29 15
11.889 24.091 144.21 34 31 17
12.491 24.143 144.53 37 31 18
13.11 24.09 144.22 36 32 18
13.712 24.153 144.58 37 32 17
14.33 24.085 144.18 36 34 16
14.935 24.144 144.51 37 31 18
15.55 24.072 144.07 37 32 18
16.158 24.091 144.17 36 31 17
16.767 24.115 144.29 35 33 16
17.378 24.161 144.52 35 30 15
17.987 24.13 144.31 33 27 14
18.571 23.759 142.11 30 24 11
19.093 22.915 137.16 39 32 17
19.576 22.09 132.31 41 36 19
20.097 21.816 130.67 123 125 132
20.566 21.302 127.63 128 131 147
20.885 20.134 120.8 135 137 154
21.212 19.262 115.68 129 137 148
21.692 19.217 115.36 75 83 98
22.169 19.163 114.98 76 84 98
22.692 19.282 115.61 52 56 70
23.201 19.34 115.88 71 82 92
23.666 19.256 115.32 73 82 94
24.189 19.346 115.76 76 83 98
24.704 19.405 116.02 75 82 97
25.208 19.429 116.08 75 83 93
25.682 19.381 115.71 73 83 99
26.235 19.513 116.38 73 83 96
26.753 19.559 116.55 73 82 94
27.274 19.604 116.71 73 83 93
27.785 19.63 116.75 74 82 101
28.245 19.558 116.23 72 82 96
28.795 19.651 116.65 74 82 99
29.374 19.785 117.3 72 82 93
29.877 19.787 117.19 75 82 99
30.366 19.767 116.95 73 84 97
30.938 19.872 117.42 74 83 97
31.472 19.916 117.53 72 79 95
32.023 19.98 117.76 74 79 97
32.55 20.009 117.78 72 82 94
33.091 20.054 117.88 73 82 92
33.666 20.14 118.22 71 79 91
34.183 20.149 118.11 70 81 96
34.709 20.169 118.07 72 81 89
35.219 20.169 117.9 71 80 93
35.839 20.293 118.43 70 79 90
36.45 20.403 118.87 71 79 91
37.029 20.471 119.07 68 79 92
37.582 20.509 119.09 68 78 91
38.116 20.526 119 69 80 91
38.703 20.596 119.19 69 77 89
39.166 20.541 118.68 69 77 92
39.906 20.753 119.66 70 77 89
40.359 20.689 119.08 68 75 88
41.028 20.823 119.61 67 78 87
41.656 20.916 119.91 67 76 89
42.187 20.921 119.7 67 76 90
42.823 21.016 119.99 67 76 90
43.414 21.069 120.04 66 75 89
43.957 21.081 119.86 66 75 87
44.573 21.151 119.99 66 76 89
45.385 21.373 120.95 66 73 78
45.979 21.418 120.93 66 73 84
46.72 21.574 121.51 65 74 83
47.279 21.589 121.31 64 73 82
47.818 21.588 121.02 65 72 88
48.613 21.773 121.73 62 71 83
49.165 21.779 121.46 62 73 83
49.763 21.817 121.36 63 73 85
50.487 21.94 121.71 61 70 84
51.155 22.022 121.83 62 70 83
51.892 22.147 122.17 61 70 82
52.643 22.278 122.54 60 70 84
53.261 22.32 122.42 61 71 85
54.218 22.575 123.42 61 69 82
54.942 22.677 123.6 0 0 0
56.139 23.068 125.31 0 0 0
60.332 25.272 136.55 0 0 0
61.958 25.873 139.29 35 32 21
62.67 25.918 139.08 0 0 0
63.432 25.99 139.01 0 0 0
64.058 25.983 138.52 0 0 0
64.979 26.143 138.88 0 0 0
65.716 26.196 138.69 0 0 0
66.495 26.272 138.6 0 0 0
67.269 26.343 138.47 0 0 0
68.178 26.486 138.7 0 0 0
68.83 26.488 138.2 0 0 0
69.409 26.453 137.5 0 0 0
72.235 27.585 142.72 0 0 0
77.791 30.092 154.81 0 0 0
78.939 30.305 155.27 0 0 0
80.242 30.59 156.08 0 0 0
-42.669 26.332 131.89 8 7 6
-45.874 28.136 141.33 24 22 29
-40.305 25.832 130.52 7 6 5
-39.976 25.981 131.79 7 5 2
-39.504 26.064 132.74 6 4 3
-41.654 27.433 140.1 24 25 32
-37.887 25.905 132.97 6 5 3
-39.904 27.238 140.18 30 42 55
-40.305 27.784 143.46 6 5 3
-38.635 27.28 141.42 6 3 4
-39.133 27.891 145.03 5 4 3
-37.994 27.656 144.33 6 3 3
-42.733 30.546 159.64 29 41 54
-42.729 30.951 162.25 27 40 54
-39.777 29.756 156.61 5 3 2
-36.587 28.398 150.08 19 17 17
-39.888 30.645 162.21 0 0 0
-46.357 34.756 184.1 77 71 72
-45.501 34.756 184.64 19 18 19
-36.281 29.867 159.58 27 22 21
-24.502 23.324 125.67 35 31 31
-22.41 22.418 121.25 89 91 88
-21.814 22.397 121.47 96 98 91
-21.16 22.34 121.5 99 99 95
-20.373 22.198 121.06 100 95 94
-19.804 22.191 121.32 97 97 92
-19.178 22.146 121.39 100 95 91
-18.556 22.103 121.45 96 93 91
-17.945 22.065 121.53 99 96 91
-17.25 21.97 121.3 97 96 92
-16.599 21.901 121.2 96 95 90
-16.036 21.892 121.42 100 93 92
-15.251 21.724 120.77 98 98 91
-14.796 21.791 121.38 99 98 90
-14.131 21.703 121.15 100 96 92
-13.64 21.744 121.61 99 96 89
-12.961 21.642 121.29 101 99 88
-12.457 21.674 121.69 100 98 92
-11.8 21.584 121.42 99 97 92
-11.213 21.547 121.43 100 99 93
-10.64 21.521 121.5 98 98 93
-10.027 21.459 121.36 101 96 95
-9.3307 21.324 120.82 102 98 89
-8.7738 21.306 120.91 98 97 91
-8.3183 21.377 121.49 101 99 88
-7.6819 21.285 121.16 98 95 88
-7.0785 21.221 120.98 98 94 90
-6.5008 21.177 120.91 98 95 89
-6.0328 21.24 121.42 97 97 89
-5.3898 21.129 120.97 96 93 89
-4.8495 21.119 121.06 98 94 85
-4.3053 21.104 121.13 96 92 81
-3.8059 21.136 121.46 94 96 83
-3.2441 21.101 121.4 93 89 85
-2.6154 20.987 120.9 91 92 83
-2.0552 20.948 120.81 94 93 87
-1.5277 20.945 120.92 92 91 87
-1.0009 20.943 121.03 93 89 86
-0.4581 20.92 121.02 92 92 81
0.091106 20.887 120.94 95 93 85
0.61529 20.886 121.04 96 93 88
1.1502 20.869 121.05 94 92 88
1.6947 20.837 120.97 93 94 86
2.2721 20.754 120.59 95 91 85
2.7448 20.827 121.09 94 91 90
3.269 20.822 121.15 89 89 86
3.0311 22.102 128.46 78 77 73
2.6226 23.787 138.06 78 75 68
2.6727 24.778 143.75 65 63 59
3.1014 25.134 145.84 50 47 46
3.5233 25.536 148.19 28 25 23
3.9442 25.981 150.78 9 7 7
4.0057 27.268 158.14 21 18 10
4.3104 28.129 163.08 25 22 12
6.0922 25.432 147.86 70 80 87
6.9156 24.921 145.01 19 15 11
7.5587 24.847 144.64 20 17 10
8.165 24.872 144.82 22 19 10
8.8061 24.788 144.39 25 21 8
9.3969 24.866 144.86 25 21 12
10.037 24.768 144.33 30 24 14
10.646 24.784 144.44 31 26 14
11.262 24.77 144.38 30 28 14
11.877 24.75 144.28 32 29 16
12.482 24.788 144.51 35 29 15
13.107 24.702 144.02 35 30 17
13.715 24.715 144.09 35 31 17
14.327 24.702 144.01 35 31 17
14.934 24.742 144.23 35 30 18
15.543 24.761 144.32 36 29 15
16.155 24.708 144 35 28 17
16.765 24.785 144.42 34 29 18
17.374 24.722 144.03 32 27 13
17.987 24.795 144.41 33 28 14
18.573 24.435 142.33 29 24 16
19.086 23.445 136.67 35 32 17
19.605 22.923 133.67 38 34 19
20.095 22.37 130.49 122 121 133
20.541 21.707 126.68 130 132 149
20.895 20.715 121.01 135 139 157
21.21 19.759 115.53 134 136 154
21.688 19.697 115.13 77 86 95
22.181 19.709 115.14 77 88 104
22.686 19.763 115.38 51 58 75
23.203 19.849 115.79 72 82 92
23.662 19.741 115.11 74 84 93
24.184 19.833 115.56 75 86 100
24.723 19.957 116.17 76 85 95
25.222 19.965 116.14 76 84 97
25.735 20.006 116.28 75 83 94
26.228 19.999 116.15 76 85 93
26.741 20.035 116.25 74 85 98
27.255 20.072 116.35 76 84 93
27.774 20.113 116.48 75 84 97
28.29 20.145 116.55 74 84 99
28.863 20.277 117.18 76 82 97
29.328 20.215 116.71 74 81 97
29.832 20.221 116.62 73 82 95
30.407 20.339 117.15 74 83 95
30.966 20.425 117.5 74 81 96
31.437 20.375 117.09 72 82 95
31.942 20.377 116.96 76 83 91
32.586 20.57 117.89 70 80 98
33.08 20.553 117.64 70 83 92
33.648 20.631 117.92 71 81 96
34.067 20.518 117.14 71 80 92
34.798 20.793 118.5 70 81 94
35.297 20.777 118.24 73 77 96
35.8 20.766 118.01 70 79 92
36.477 20.953 118.86 70 76 89
36.974 20.932 118.56 70 80 88
37.52 20.966 118.56 67 80 91
38.124 21.058 118.87 70 79 89
38.707 21.124 119.03 69 78 89
39.261 21.159 119.02 67 79 88
39.806 21.183 118.95 68 77 89
40.357 21.213 118.9 68 76 88
41.02 21.346 119.4 66 73 89
41.572 21.372 119.31 68 78 88
42.228 21.489 119.72 68 75 90
42.859 21.581 119.97 68 73 91
43.464 21.646 120.08 64 75 90
44.059 21.701 120.13 66 73 89
44.716 21.805 120.43 65 74 88
45.305 21.85 120.42 66 75 83
46.019 21.993 120.91 66 74 85
46.637 22.056 120.97 62 73 87
47.35 22.19 121.4 63 72 86
47.926 22.216 121.25 64 73 86
48.68 22.373 121.79 63 71 88
49.211 22.363 121.44 64 72 83
49.946 22.499 121.85 60 70 84
50.55 22.539 121.74 61 71 84
51.29 22.672 122.12 62 70 84
51.878 22.697 121.92 58 69 82
52.589 22.804 122.14 60 70 78
53.355 22.945 122.53 61 69 83
53.995 22.999 122.46 57 67 78
55.03 23.305 123.68 0 0 0
56.342 23.778 125.75 0 0 0
60.525 26.025 136.93 34 29 19
61.975 26.531 139.09 35 32 21
62.661 26.561 138.8 0 0 0
63.451 26.651 138.82 0 0 0
64.246 26.743 138.83 0 0 0
64.894 26.747 138.38 0 0 0
65.745 26.868 138.52 0 0 0
66.486 26.924 138.31 0 0 0
67.24 26.985 138.13 0 0 0
68.099 27.103 138.22 0 0 0
68.913 27.195 138.16 0 0 0
69.784 27.315 138.24 0 0 0
74.066 29.246 147.25 0 0 0
78.235 31.072 155.66 0 0 0
79.131 31.156 155.46 0 0 0
80.567 31.515 156.59 0 0 0
-46.495 28.8 140.26 8 6 4
-45.111 28.47 139.26 8 6 5
-40.814 26.723 131.42 8 7 4
-41.249 27.252 134.52 6 4 4
-43.377 28.632 141.76 22 22 28
-42.996 28.788 143.08 6 4 3
-42.52 28.898 144.17 6 4 2
-38.468 27.178 136.27 6 4 2
-39.544 28.079 141.21 32 42 54
-38.678 27.981 141.24 6 4 3
-38.853 28.434 143.99 5 4 4
-44.113 31.637 160.44 28 42 52
-42.527 31.189 158.75 28 42 58
-42.847 31.781 162.25 6 3 4
-39.18 30.159 154.61 3 2 2
-39.878 30.968 159.19 9 6 5
-39.846 31.379 161.76 14 13 12
-44.079 34.284 177 75 72 68
-46.089 35.958 186.05 74 76 69
-37.605 31.398 163.32 18 17 18
-24.875 24.133 126.59 31 29 28
-22.571 23.078 121.53 96 97 91
-21.946 23.04 121.67 101 98 95
-21.203 22.927 121.41 100 95 92
-20.68 22.951 121.85 100 97 93
-19.971 22.855 121.66 99 95 89
-19.376 22.831 121.84 99 94 88
-18.685 22.743 121.67 100 95 92
-18 22.655 121.5 101 96 89
-17.256 22.524 121.1 96 93 87
-16.76 22.563 121.57 102 97 91
-16.087 22.477 121.39 99 95 90
-15.323 22.321 120.83 95 96 89
-14.7 22.264 120.78 97 94 88
-14.302 22.375 121.62 100 97 90
-13.652 22.297 121.44 99 97 90
-13.008 22.22 121.27 101 96 87
-12.293 22.084 120.77 102 97 90
-11.831 22.148 121.34 100 98 90
-11.217 22.089 121.24 100 96 90
-10.734 22.138 121.71 101 97 93
-10.025 21.994 121.14 103 98 90
-9.4756 21.985 121.29 98 97 92
-8.9337 21.981 121.47 100 96 88
-8.3102 21.903 121.24 100 97 91
-7.6222 21.761 120.65 99 99 85
-7.0594 21.732 120.67 97 93 86
-6.537 21.741 120.9 96 93 86
-6.0307 21.767 121.2 97 95 89
-5.4451 21.713 121.07 97 96 89
-4.8372 21.633 120.79 98 95 85
-4.3181 21.644 121 93 89 85
-3.7845 21.639 121.12 97 94 88
-3.2089 21.587 120.98 97 93 84
-2.6732 21.578 121.06 94 92 86
-2.1293 21.558 121.09 94 93 82
-1.5911 21.545 121.14 95 91 84
-1.0075 21.473 120.87 93 89 89
-0.45632 21.438 120.8 91 90 83
0.072954 21.431 120.87 93 90 83
0.58229 21.451 121.09 92 91 83
1.1331 21.413 120.98 94 88 85
1.6386 21.439 121.23 90 89 83
2.2006 21.38 121 91 89 85
2.726 21.375 121.06 86 86 81
3.2315 21.402 121.3 90 88 86
2.985 22.729 128.68 81 78 73
2.5388 24.524 138.66 76 75 65
2.6971 25.342 143.25 66 64 57
3.0347 25.882 146.31 47 44 37
3.5477 26.113 147.66 28 27 24
3.9424 26.621 150.55 11 9 9
4.0315 27.876 157.55 21 17 11
3.9272 29.731 167.87 25 21 10
6.0189 26.24 148.63 72 77 92
6.8883 25.604 145.17 18 15 10
7.5422 25.501 144.65 22 17 9
8.1616 25.49 144.62 21 17 10
8.7851 25.463 144.51 22 20 9
9.4145 25.409 144.25 25 20 10
10.03 25.399 144.22 27 22 12
10.646 25.383 144.16 29 25 11
11.255 25.4 144.27 32 27 13
11.866 25.407 144.32 32 29 16
12.482 25.387 144.22 33 29 15
13.096 25.373 144.15 34 30 15
13.711 25.344 143.98 32 28 15
14.314 25.416 144.38 33 28 16
14.926 25.419 144.39 33 28 15
15.538 25.418 144.36 33 28 15
16.151 25.4 144.25 33 27 14
16.762 25.351 143.95 32 25 16
17.373 25.399 144.19 31 26 14
17.984 25.393 144.12 29 24 13
18.587 25.281 143.47 29 26 12
19.091 24.111 136.95 33 29 16
19.576 23.256 132.18 35 29 18
20.093 22.925 130.3 120 123 131
20.562 22.391 127.29 125 128 139
20.869 21.096 120.08 129 135 148
21.208 20.25 115.36 121 129 135
21.705 20.273 115.42 76 83 100
22.19 20.247 115.22 74 85 96
22.7 20.313 115.53 50 58 76
23.201 20.342 115.62 72 81 97
23.692 20.334 115.5 73 83 93
24.207 20.401 115.79 75 84 93
24.695 20.383 115.61 74 84 98
25.249 20.537 116.37 74 84 93
25.761 20.573 116.48 76 83 98
26.2 20.437 115.64 76 83 99
26.758 20.576 116.31 75 85 97
27.294 20.656 116.65 72 81 95
27.783 20.634 116.42 76 84 97
28.265 20.602 116.14 73 85 95
28.84 20.743 116.79 76 85 95
29.412 20.868 117.36 75 82 98
29.942 20.912 117.47 73 85 94
30.448 20.914 117.36 76 82 94
30.909 20.845 116.85 74 83 95
31.477 20.945 117.26 74 81 94
32.077 21.083 117.87 75 82 98
32.572 21.064 117.62 71 81 96
33.185 21.209 118.25 71 80 95
33.678 21.185 117.97 74 80 92
34.195 21.195 117.87 73 80 94
34.757 21.259 118.05 72 80 96
35.415 21.438 118.85 71 81 93
35.867 21.362 118.26 71 79 95
36.569 21.581 119.26 72 81 91
36.856 21.32 117.68 70 77 91
37.672 21.654 119.28 71 76 94
38.143 21.601 118.8 69 76 87
38.726 21.669 118.97 66 79 88
39.425 21.852 119.74 68 76 88
39.826 21.73 118.87 68 78 89
40.48 21.859 119.35 69 76 87
40.99 21.847 119.06 69 74 88
41.683 22.005 119.67 65 75 87
42.377 22.159 120.25 65 72 88
42.803 22.066 119.52 66 75 87
43.488 22.204 120.01 65 74 85
44.059 22.238 119.94 63 72 88
44.742 22.366 120.36 64 73 83
45.365 22.441 120.48 66 74 87
46.081 22.587 120.98 63 71 82
46.749 22.69 121.24 65 71 81
47.288 22.689 120.95 63 74 81
48.035 22.849 121.49 64 73 86
48.711 22.948 121.71 62 72 82
49.287 22.971 121.52 63 72 83
50.199 23.239 122.59 62 68 82
50.584 23.119 121.66 63 72 86
51.387 23.299 122.26 61 70 83
51.984 23.33 122.08 62 67 79
52.795 23.507 122.65 62 69 82
53.408 23.545 122.49 62 69 82
54.402 23.836 123.61 58 64 76
54.804 23.73 122.71 0 0 0
56.443 24.427 125.85 0 0 0
60.621 26.723 136.99 31 28 19
61.984 27.185 138.87 0 0 0
62.752 27.266 138.83 0 0 0
63.535 27.353 138.82 0 0 0
64.284 27.419 138.68 0 0 0
65.171 27.565 138.94 0 0 0
65.689 27.49 138.09 0 0 0
66.576 27.632 138.31 0 0 0
67.331 27.695 138.12 0 0 0
68.141 27.788 138.07 0 0 0
69.017 27.916 138.18 0 0 0
70.191 28.204 139.06 0 0 0
75.712 30.852 151.28 0 0 0
78.489 31.961 156.01 0 0 0
79.075 31.88 155.01 0 0 0
80.478 32.231 156.06 0 0 0
-46.546 29.524 140.05 7 5 5
-45.467 29.335 139.76 8 6 6
-42.199 28.058 134.35 8 7 5
-44.053 29.318 140.84 20 21 28
-41.623 28.437 137.24 5 3 3
-37.234 26.532 128.72 5 5 2
-42.944 29.818 144.9 5 3 3
-36.047 26.568 129.89 5 4 1
-41.127 29.601 144.94 4 4 2
-36.43 27.451 135.11 4 3 2
-37.003 28.117 138.81 4 3 2
-41.05 30.713 151.91 29 41 51
-40.105 30.59 151.83 30 38 54
-39.318 30.553 152.16 3 1 2
-39.61 31.134 155.5 2 1 1
-40.157 31.877 159.66 3 4 2
-38.864 31.559 158.59 11 9 9
-40.132 32.757 165.01 0 0 0
-41.573 34.093 172.14 13 15 13
-37.401 32.03 162.37 16 15 16
-25.032 24.819 126.83 24 24 23
-22.76 23.76 121.88 101 100 94
-21.983 23.626 121.54 98 93 90
-21.299 23.549 121.48 99 99 89
-20.638 23.483 121.47 100 98 92
-19.93 23.385 121.28 100 96 88
-19.186 23.26 120.95 101 97 90
-18.734 23.331 121.61 100 95 85
-17.84 23.096 120.7 100 97 92
-17.476 23.229 121.67 100 95 86
-16.859 23.185 121.72 101 97 88
-16.261 23.153 121.82 100 94 89
-15.494 22.993 121.26 99 93 87
-14.94 22.989 121.5 100 95 88
-14.164 22.814 120.84 100 94 87
-13.503 22.723 120.61 99 95 88
-13.117 22.849 121.5 97 95 86
-12.502 22.793 121.44 98 94 90
-11.83 22.687 121.11 102 99 90
-10.974 22.421 119.95 102 98 91
-10.72 22.665 121.43 101 99 89
-9.9665 22.478 120.66 101 94 94
-9.4617 22.508 121.01 101 97 90
-8.908 22.493 121.13 99 97 82
-8.2673 22.396 120.81 99 96 85
-7.6951 22.361 120.81 101 96 85
-7.1418 22.342 120.89 99 97 88
-6.5296 22.263 120.65 98 96 89
-5.9806 22.246 120.72 98 94 87
-5.4538 22.251 120.91 99 95 88
-4.8711 22.196 120.78 98 96 86
-4.406 22.267 121.31 100 94 86
-3.7973 22.18 120.99 97 95 90
-3.2971 22.214 121.31 96 94 88
-2.6761 22.106 120.88 96 92 86
-2.2082 22.179 121.4 92 91 84
-1.6113 22.094 121.07 96 90 87
-1.0524 22.052 120.98 96 92 88
-0.4097 21.897 120.26 96 91 88
0.078368 21.944 120.63 94 91 87
0.61444 21.926 120.64 94 93 83
1.1046 21.974 121 93 93 85
1.5894 22.034 121.42 92 89 84
2.1774 21.935 120.99 91 88 80
2.7203 21.902 120.9 89 90 80
3.2227 21.935 121.17 90 85 82
2.9262 23.381 129.02 79 79 74
2.4963 25.192 138.84 75 74 66
2.6759 25.991 143.23 63 63 55
3.1992 26.172 144.28 51 49 44
3.5407 26.752 147.49 31 27 24
3.8859 27.382 150.96 12 8 8
4.003 28.606 157.63 20 18 10
3.6969 31.002 170.62 25 22 10
5.8106 27.406 151.28 71 80 92
6.8687 26.269 145.2 17 15 13
7.5107 26.202 144.89 20 18 9
8.1425 26.157 144.69 22 17 10
8.7671 26.13 144.58 22 19 10
9.4067 26.042 144.14 24 20 10
10.017 26.053 144.22 24 21 11
10.618 26.108 144.55 25 23 11
11.242 26.065 144.33 28 26 13
11.859 26.045 144.24 29 24 12
12.473 26.041 144.23 32 26 14
13.093 25.988 143.95 31 26 15
13.698 26.04 144.23 31 25 12
14.314 26.005 144.03 30 26 12
14.923 26.041 144.22 29 26 14
15.534 26.066 144.34 30 25 13
16.147 26.043 144.2 29 24 12
16.759 26.069 144.31 30 23 13
17.371 26.019 144.02 28 23 12
17.982 26.013 143.95 28 24 13
18.572 25.696 142.2 29 25 12
19.09 24.717 136.87 34 26 15
19.579 23.869 132.25 31 29 18
20.091 23.481 130.11 123 121 136
20.538 22.791 126.34 125 127 144
20.846 21.493 119.28 131 135 150
21.208 20.753 115.24 123 128 131
21.699 20.748 115.16 76 81 94
22.209 20.827 115.52 74 82 94
22.699 20.812 115.37 53 61 75
23.192 20.814 115.32 74 82 95
23.689 20.828 115.32 76 82 97
24.212 20.918 115.73 74 83 93
24.683 20.85 115.28 74 83 93
25.232 20.996 115.98 74 84 97
25.712 20.956 115.68 75 84 98
26.209 20.96 115.61 76 84 97
26.785 21.141 116.48 75 85 93
27.266 21.102 116.17 73 83 96
27.845 21.267 116.95 75 84 96
28.333 21.239 116.69 73 83 97
28.811 21.196 116.34 74 82 94
29.385 21.329 116.94 72 83 92
29.937 21.413 117.26 73 80 95
30.459 21.442 117.29 73 79 93
30.944 21.411 116.99 72 81 97
31.482 21.463 117.13 74 82 95
32.038 21.538 117.39 71 81 93
32.566 21.569 117.41 71 79 96
33.139 21.661 117.75 69 80 93
33.639 21.648 117.52 69 81 91
34.248 21.78 118.06 71 80 93
34.803 21.835 118.19 70 80 91
35.378 21.913 118.42 71 82 93
35.911 21.935 118.37 70 79 92
36.483 22.002 118.54 70 78 89
37.024 22.031 118.51 70 77 88
37.602 22.1 118.68 67 76 88
38.106 22.085 118.41 68 76 89
38.767 22.238 119.01 68 79 88
39.274 22.224 118.73 66 78 86
39.809 22.238 118.6 69 77 89
40.519 22.427 119.36 68 76 86
41.099 22.482 119.42 69 76 89
41.6 22.459 119.08 67 77 86
42.281 22.604 119.59 64 73 87
42.828 22.622 119.44 67 76 86
43.501 22.752 119.87 66 76 90
44.2 22.899 120.38 66 75 91
44.801 22.958 120.42 64 74 88
45.333 22.955 120.14 63 71 85
46.116 23.161 120.92 63 72 85
46.743 23.233 121.01 64 71 85
47.282 23.232 120.72 61 72 80
48.066 23.424 121.4 63 71 84
48.669 23.469 121.33 63 69 85
49.327 23.555 121.46 62 68 82
49.928 23.596 121.36 62 68 77
50.602 23.689 121.51 61 67 82
51.524 23.959 122.54 61 69 80
52.036 23.928 122.05 59 67 79
52.62 23.949 121.81 59 67 81
53.512 24.182 122.63 60 68 83
54.483 24.463 123.66 59 67 80
54.835 24.32 122.59 0 0 0
56.849 25.281 126.94 0 0 0
60.657 27.384 136.84 0 0 0
62.004 27.846 138.67 0 0 0
62.763 27.922 138.6 0 0 0
63.573 28.029 138.67 0 0 0
64.455 28.177 138.93 0 0 0
65.04 28.141 138.28 0 0 0
66.001 28.332 138.72 0 0 0
66.696 28.361 138.38 0 0 0
67.504 28.455 138.33 0 0 0
68.376 28.585 138.44 0 0 0
69.287 28.733 138.63 0 0 0
70.859 29.251 140.55 0 0 0
76.404 31.968 152.78 0 0 0
78.488 32.716 155.69 0 0 0
78.977 32.581 154.44 0 0 0
80.555 33.034 155.93 0 0 0
-47.96 30.923 142.91 6 4 3
-43.63 29.11 135.24 6 6 4
-45.125 30.206 140.83 18 16 23
-45.494 30.751 143.92 7 5 6
-40.683 28.624 134.68 4 3 2
-40.574 28.913 136.55 5 4 2
-43.214 30.667 145.24 30 41 52
-38.622 28.582 136.05 4 2 2
-41.175 30.327 144.75 31 41 52
-41.114 30.677 146.93 5 3 2
-41.655 31.372 150.73 4 3 3
-40.551 31.157 150.25 4 3 3
-36.7 29.369 142.26 1 1 1
-39.755 31.527 153.04 27 38 51
-40.013 32.103 156.3 28 41 52
-38.976 31.927 155.96 4 3 1
-37.651 31.573 154.74 9 9 8
-38.968 32.819 161.24 0 0 0
-42.05 35.189 173.21 76 75 71
-38.51 33.478 165.41 13 14 14
-24.919 25.337 126.21 21 22 23
-22.762 24.328 121.64 102 99 102
-22.002 24.201 121.36 98 92 91
-21.336 24.134 121.36 100 94 89
-20.545 23.981 120.92 101 95 88
-19.847 23.886 120.77 100 96 87
-19.303 23.895 121.11 103 95 88
-18.743 23.893 121.4 99 98 90
-17.952 23.726 120.87 102 96 87
-17.5 23.8 121.52 101 98 87
-16.875 23.749 121.54 102 99 89
-16.072 23.561 120.87 101 96 84
-15.464 23.517 120.91 101 96 88
-14.903 23.508 121.12 98 95 83
-14.243 23.42 120.93 99 93 87
-13.749 23.463 121.39 102 93 88
-13.137 23.41 121.36 102 94 87
-12.426 23.272 120.89 104 97 89
-12.035 23.402 121.78 100 96 89
-11.319 23.254 121.25 101 96 88
-10.713 23.198 121.17 103 99 92
-10.16 23.187 121.33 101 99 88
-9.5219 23.098 121.08 101 98 87
-8.9428 23.061 121.08 99 94 86
-8.3543 23.012 121.02 99 95 87
-7.803 22.998 121.14 101 95 88
-7.2305 22.962 121.13 100 95 86
-6.6436 22.91 121.03 100 98 89
-6.1456 22.948 121.4 98 96 90
-5.4838 22.812 120.86 99 96 89
-4.9157 22.772 120.81 99 92 87
-4.4396 22.834 121.29 99 94 89
-3.8154 22.727 120.89 97 97 89
-3.2437 22.678 120.77 99 93 89
-2.6978 22.657 120.8 97 92 89
-2.1622 22.647 120.89 98 93 85
-1.6231 22.633 120.94 96 91 84
-1.1315 22.68 121.31 97 89 89
-0.52746 22.577 120.89 95 92 88
0.063633 22.485 120.53 97 91 86
0.59629 22.472 120.57 97 95 85
1.1131 22.482 120.73 95 95 86
1.6552 22.453 120.67 95 90 85
2.1609 22.48 120.92 92 91 84
2.6843 22.48 121.01 90 89 82
3.1588 22.565 121.54 89 85 83
2.9323 23.921 128.74 79 77 67
2.4386 25.892 139.17 75 72 67
2.6657 26.619 143.08 64 63 56
3.0012 27.191 146.16 48 45 38
3.4945 27.477 147.75 30 29 24
3.901 27.987 150.51 14 11 8
3.9955 29.29 157.44 18 16 10
3.5216 32.16 172.63 25 19 11
5.3553 29.251 157.37 74 73 73
6.8093 27.049 145.82 29 29 34
7.4846 26.891 145.04 20 17 10
8.1388 26.778 144.48 21 17 9
8.7571 26.771 144.49 21 18 9
9.3764 26.76 144.46 23 17 9
9.9921 26.76 144.49 23 19 9
10.611 26.743 144.43 26 20 10
11.224 26.755 144.51 27 21 11
11.855 26.667 144.06 26 22 11
12.468 26.669 144.08 26 20 11
13.088 26.62 143.83 26 20 11
13.698 26.634 143.91 28 21 10
14.304 26.698 144.24 28 23 10
14.918 26.685 144.16 27 21 12
15.531 26.683 144.14 29 21 13
16.143 26.709 144.26 27 22 9
16.757 26.663 143.99 28 23 11
17.369 26.685 144.08 28 21 14
17.978 26.595 143.57 28 23 11
18.568 26.276 141.85 28 23 12
19.071 25.095 135.58 31 24 13
19.607 24.709 133.5 32 26 14
20.083 23.998 129.71 123 125 132
20.534 23.32 126.09 128 128 140
20.856 22.07 119.45 132 135 150
21.225 21.346 115.59 128 131 137
21.716 21.331 115.45 76 86 100
22.239 21.456 116.05 78 85 95
22.704 21.334 115.34 58 67 79
23.204 21.358 115.4 74 82 95
23.742 21.501 116.08 75 83 97
24.188 21.347 115.19 76 82 97
24.747 21.535 116.1 75 83 95
25.234 21.505 115.86 72 84 97
25.763 21.588 116.2 77 86 98
26.233 21.519 115.75 79 84 95
26.798 21.676 116.47 75 82 94
27.321 21.726 116.63 75 81 96
27.819 21.72 116.5 73 83 98
28.291 21.663 116.09 74 83 92
28.865 21.805 116.72 71 82 96
29.383 21.834 116.75 74 82 95
29.919 21.892 116.93 72 82 96
30.437 21.916 116.93 73 81 92
30.994 22.003 117.25 70 81 91
31.552 22.084 117.53 73 81 92
32.077 22.11 117.52 74 81 94
32.649 22.204 117.86 73 80 90
33.153 22.196 117.67 73 80 92
33.724 22.28 117.95 70 80 91
34.196 22.227 117.52 70 78 93
34.828 22.386 118.17 71 81 88
35.341 22.385 118 69 77 87
35.933 22.482 118.32 69 77 88
36.42 22.449 117.97 70 78 86
37.071 22.609 118.61 70 76 91
37.551 22.565 118.2 63 75 86
38.161 22.67 118.54 69 75 86
38.724 22.718 118.58 69 74 88
39.403 22.887 119.23 67 75 87
40.023 22.988 119.53 68 75 92
40.614 23.055 119.66 67 73 86
41.168 23.082 119.57 68 76 88
41.712 23.099 119.43 68 75 85
42.366 23.219 119.8 68 75 88
42.976 23.294 119.94 66 73 85
43.552 23.335 119.9 64 74 83
44.31 23.539 120.67 68 74 89
44.862 23.552 120.48 64 74 88
45.614 23.74 121.15 65 72 86
46.172 23.755 120.95 64 73 85
46.835 23.857 121.18 63 72 81
47.419 23.89 121.06 62 71 82
48.133 24.029 121.46 65 71 83
48.488 23.878 120.42 62 69 83
49.375 24.146 121.43 61 69 82
50.023 24.223 121.5 60 67 78
50.714 24.329 121.7 60 66 82
51.489 24.495 122.19 58 67 79
52.217 24.622 122.47 59 69 79
52.657 24.538 121.72 61 66 79
53.608 24.818 122.73 59 66 79
54.514 25.058 123.53 0 0 0
55.011 25.011 122.94 0 0 0
57.282 26.165 128.1 0 0 0
60.853 28.153 137.21 0 0 0
62.185 28.613 138.97 0 0 0
62.975 28.71 138.99 0 0 0
63.715 28.772 138.83 0 0 0
64.383 28.788 138.44 0 0 0
65.205 28.899 138.49 0 0 0
65.936 28.952 138.26 0 0 0
67.034 29.225 139.05 0 0 0
67.627 29.191 138.39 0 0 0
68.421 29.276 138.28 0 0 0
69.784 29.69 139.69 0 0 0
74.044 31.764 148.71 0 0 0
77.867 33.539 156.28 0 0 0
78.755 33.623 156.05 0 0 0
79.767 33.773 156.12 0 0 0
80.555 33.797 155.6 0 0 0
-47.249 31.278 140.97 6 5 4
-46.929 31.473 142.44 6 4 4
-43.941 30.292 137.76 6 4 4
-42.681 29.988 136.96 7 4 3
-45.731 31.962 146.41 20 21 26
-40.543 29.566 136.16 4 3 2
-41.45 30.42 140.56 3 3 2
-38.1 28.957 134.44 3 3 1
-37.193 28.817 134.3 4 3 3
-38.41 29.867 139.62 28 41 53
-36.295 29.046 136.34 2 1 1
-41.53 32.44 152.52 4 2 3
-40.18 32.078 151.37 28 40 51
-40.677 32.798 155.24 2 1 1
-38.041 31.663 150.44 2 2 1
-38.135 32.152 153.23 3 3 3
-36.898 31.838 152.24 8 6 8
-35.185 31.218 149.78 9 10 9
-38.275 33.613 161.57 0 0 0
-34.206 31.492 151.99 10 10 10
-25.314 26.182 127.17 17 19 20
-22.64 24.813 121 103 100 91
-21.908 24.702 120.81 100 93 88
-21.321 24.685 121.06 99 94 91
-20.658 24.616 121.05 101 95 87
-19.958 24.519 120.89 99 94 89
-19.28 24.434 120.79 100 93 87
-18.525 24.292 120.4 104 96 90
-18.121 24.402 121.22 103 94 89
-17.509 24.36 121.31 102 96 89
-16.953 24.36 121.59 101 97 85
-16.239 24.238 121.26 100 98 88
-15.524 24.111 120.91 102 96 89
-15.138 24.241 121.8 97 94 85
-14.43 24.116 121.44 101 95 86
-13.53 23.828 120.27 99 93 90
-13.241 24.041 121.56 103 99 86
-12.473 23.853 120.86 101 96 87
-11.995 23.91 121.38 103 95 85
-11.319 23.794 121.02 101 96 88
-10.757 23.777 121.15 101 99 88
-10.184 23.749 121.22 102 97 87
-9.5212 23.634 120.85 102 98 85
-8.9661 23.619 120.97 103 98 92
-8.3593 23.551 120.82 103 95 91
-7.8368 23.566 121.08 100 96 89
-7.2803 23.546 121.16 100 96 90
-6.6867 23.486 121.04 97 94 88
-6.1501 23.485 121.2 98 93 83
-5.593 23.461 121.25 99 95 84
-4.9607 23.351 120.85 98 95 86
-4.4986 23.431 121.41 98 94 91
-3.9214 23.38 121.3 98 92 87
-3.328 23.306 121.07 98 93 86
-2.7152 23.204 120.69 98 92 84
-2.2016 23.223 120.93 97 93 85
-1.7224 23.288 121.39 96 96 84
-1.1307 23.204 121.09 98 95 86
-0.48958 23.047 120.41 95 93 83
-0.050973 23.171 121.15 97 92 87
0.50456 23.128 121.05 96 93 88
1.1101 23.006 120.53 94 93 85
1.5621 23.12 121.22 95 91 84
2.0919 23.114 121.28 93 88 82
2.6949 22.982 120.7 92 88 82
3.0979 23.194 121.87 92 90 81
2.8916 24.547 128.89 76 74 68
2.4372 26.488 138.94 74 73 69
2.7125 27.135 142.34 64 65 58
2.9855 27.845 146.07 49 45 40
3.4766 28.143 147.69 30 27 24
3.8638 28.711 150.68 14 11 9
3.7123 30.643 160.69 19 14 8
2.6195 35.195 184.19 22 18 10
4.0249 33.517 175.62 23 18 11
6.7257 27.905 146.79 74 62 58
7.5012 27.451 144.5 19 16 16
8.0933 27.536 144.98 22 16 10
8.7373 27.449 144.58 22 16 10
9.3638 27.414 144.43 23 15 9
9.9777 27.426 144.52 21 13 9
10.612 27.346 144.13 21 15 7
11.214 27.41 144.48 22 15 8
11.846 27.319 144.03 23 18 10
12.445 27.418 144.55 23 17 7
13.079 27.283 143.86 25 18 9
13.684 27.348 144.2 26 19 10
14.295 27.391 144.42 24 18 10
14.916 27.302 143.95 25 19 9
15.527 27.34 144.14 25 19 9
16.14 27.339 144.11 26 19 11
16.754 27.326 144.02 26 20 9
17.368 27.371 144.23 27 21 11
17.98 27.313 143.9 27 20 11
18.561 26.804 141.23 29 22 11
19.069 25.681 135.41 28 22 11
19.58 25.046 132.09 31 25 21
20.078 24.525 129.36 122 124 130
20.535 23.877 125.98 131 130 142
20.848 22.547 119.08 133 137 153
21.221 21.83 115.34 112 113 124
21.703 21.773 115 75 80 94
22.24 21.965 115.92 77 80 94
22.709 21.857 115.3 61 66 80
23.199 21.842 115.16 71 80 92
23.724 21.948 115.63 74 83 94
24.225 21.962 115.62 76 83 97
24.734 22 115.74 76 85 97
25.221 21.975 115.53 74 83 93
25.772 22.117 116.16 76 82 96
26.254 22.075 115.86 74 82 94
26.761 22.097 115.87 74 83 94
27.339 22.275 116.68 75 82 99
27.863 22.321 116.81 74 84 97
28.369 22.327 116.73 75 82 93
28.86 22.304 116.5 74 81 98
29.381 22.34 116.56 74 81 96
29.872 22.317 116.33 74 83 90
30.462 22.47 116.97 74 80 96
31.034 22.581 117.41 74 81 90
31.54 22.578 117.25 73 82 94
32.12 22.691 117.69 74 80 94
32.643 22.712 117.64 73 80 91
33.136 22.686 117.37 72 79 94
33.718 22.789 117.73 74 78 90
34.225 22.782 117.53 70 78 92
34.805 22.874 117.83 73 77 93
35.429 23.02 118.39 71 78 91
35.909 22.973 117.98 69 80 87
36.538 23.113 118.51 66 79 88
37.071 23.132 118.42 69 78 88
37.585 23.128 118.2 70 73 87
38.171 23.206 118.4 70 76 89
38.85 23.384 119.08 68 78 90
39.435 23.451 119.21 66 74 89
39.957 23.449 118.99 64 75 85
40.631 23.605 119.55 66 75 85
41.1 23.545 119.03 66 75 84
41.772 23.691 119.52 66 74 83
42.421 23.809 119.86 64 74 84
42.885 23.744 119.31 66 72 86
43.604 23.922 119.93 63 72 82
44.42 24.183 120.96 64 73 85
44.85 24.085 120.22 63 71 83
45.617 24.288 120.94 63 71 81
46.025 24.173 120.11 63 71 79
46.72 24.308 120.49 63 71 84
47.513 24.52 121.23 63 69 84
48.166 24.608 121.36 63 72 82
48.778 24.661 121.32 63 70 82
49.416 24.733 121.36 60 68 80
50.05 24.8 121.37 60 70 81
50.796 24.951 121.78 61 69 77
51.518 25.079 122.06 61 67 79
52.206 25.178 122.2 60 68 79
52.76 25.177 121.85 61 66 78
53.772 25.505 123.05 59 64 80
54.596 25.691 123.57 0 0 0
55.224 25.733 123.4 0 0 0
57.917 27.202 129.91 0 0 0
61.333 29.121 138.46 28 21 15
62.323 29.358 139.13 0 0 0
63.043 29.408 138.92 0 0 0
63.923 29.562 139.18 0 0 0
64.528 29.536 138.59 0 0 0
65.343 29.644 138.61 0 0 0
66.445 29.929 139.44 0 0 0
67.442 30.142 139.92 0 0 0
68.32 30.277 140.03 0 0 0
69.529 30.609 141.02 0 0 0
72.846 32.189 147.63 0 0 0
76.517 33.939 154.94 0 0 0
77.785 34.249 155.74 0 0 0
78.886 34.457 156.05 0 0 0
79.52 34.395 155.16 0 0 0
80.645 34.61 155.49 0 0 0
-48.62 32.695 143.7 26 20 19
-47.172 32.312 142.65 6 4 4
-45.288 31.69 140.54 5 4 3
-43.619 31.169 138.84 6 5 3
-42.396 30.878 138.12 4 3 3
-39.143 29.469 132.45 3 3 1
-39.594 30.079 135.67 3 3 2
-38.092 29.609 134.1 3 2 2
-40.681 31.448 142.83 28 40 49
-41.735 32.451 147.85 30 43 52
-43.748 34.036 155.53 3 2 1
-39.719 32.105 147.36 2 2 1
-41.566 33.627 154.77 27 41 52
-38.363 32.141 148.54 3 2 1
-38.98 32.951 152.73 3 1 2
-34.398 30.562 142.29 7 6 5
-36.819 32.505 151.67 10 8 15
-35.855 32.348 151.42 8 8 5
-33.965 31.589 148.38 9 8 9
-34.092 32.128 151.32 10 10 9
-25.284 26.756 126.8 16 15 17
-22.805 25.488 121.26 100 94 82
-22.247 25.495 121.63 100 93 92
-21.541 25.399 121.52 101 90 86
-20.678 25.19 120.86 102 92 90
-20.23 25.27 121.55 102 94 87
-19.481 25.136 121.23 100 93 87
-18.836 25.073 121.24 103 95 91
-18.131 24.964 121.01 101 93 88
-17.613 24.993 121.44 101 96 90
-16.955 24.915 121.35 103 97 89
-16.187 24.748 120.83 104 96 86
-15.801 24.881 121.73 101 96 85
-15.183 24.828 121.74 101 94 86
-14.38 24.622 121 101 96 83
-13.828 24.619 121.24 101 94 85
-13.262 24.605 121.41 101 96 87
-12.447 24.372 120.52 102 95 86
-12.035 24.489 121.31 103 93 88
-11.456 24.459 121.39 101 95 86
-10.802 24.358 121.12 103 97 85
-10.247 24.347 121.27 103 94 88
-9.6686 24.312 121.31 105 95 89
-9.0321 24.219 121.05 106 95 88
-8.4297 24.156 120.94 101 95 90
-7.8883 24.153 121.11 102 98 89
-7.3024 24.103 121.05 102 96 89
-6.7303 24.066 121.04 102 96 84
-6.1872 24.058 121.18 101 96 84
-5.6188 24.021 121.16 99 94 85
-4.996 23.921 120.83 98 94 84
-4.523 23.991 121.33 100 93 85
-3.8818 23.862 120.84 99 91 86
-3.4317 23.962 121.49 97 93 84
-2.8207 23.863 121.14 97 91 87
-2.2638 23.83 121.11 96 93 84
-1.7174 23.808 121.13 98 93 88
-1.1937 23.817 121.3 100 94 83
-0.56707 23.679 120.74 96 91 88
-0.066392 23.717 121.05 97 92 86
0.48576 23.68 120.97 96 91 86
1.0173 23.672 121.04 95 90 86
1.5445 23.671 121.14 95 92 85
2.1306 23.571 120.73 95 93 81
2.6616 23.559 120.77 95 89 82
3.1757 23.576 120.94 92 87 81
2.9718 24.947 127.9 75 72 66
2.4088 27.137 138.96 73 74 67
2.6048 27.962 143.19 62 61 56
2.9969 28.442 145.68 49 46 40
3.4534 28.823 147.68 28 26 22
3.8388 29.409 150.7 14 10 10
3.6947 31.367 160.61 55 46 35
2.3935 36.563 186.82 6 4 4
2.7966 37.654 192.38 8 4 4
5.7056 31.521 161.59 83 69 61
7.2043 28.991 148.91 81 64 56
7.9204 28.727 147.62 77 64 55
8.5489 28.738 147.72 75 64 55
9.3347 28.135 144.72 73 59 52
9.9494 28.153 144.84 6 4 5
10.573 28.13 144.75 4 3 2
11.201 28.084 144.54 4 2 2
11.842 27.944 143.85 4 3 2
12.462 27.905 143.67 5 3 4
13.072 27.93 143.8 6 3 2
13.687 27.921 143.75 7 4 3
14.299 27.929 143.79 7 4 3
14.908 27.991 144.1 7 3 4
15.523 27.977 144.01 5 4 3
16.137 27.993 144.08 8 5 4
16.751 28.038 144.28 9 5 5
17.366 28.002 144.07 10 6 4
17.973 27.814 143.1 16 11 5
18.564 27.51 141.53 20 15 8
19.067 26.257 135.18 25 17 9
19.577 25.607 131.86 41 33 35
20.052 24.887 128.19 122 123 132
20.512 24.272 125.05 129 129 147
20.85 23.081 119.01 131 133 151
21.21 22.278 114.92 100 100 114
21.722 22.367 115.31 75 79 94
22.214 22.357 115.2 78 85 92
22.697 22.312 114.91 66 76 84
23.24 22.496 115.77 72 79 92
23.709 22.398 115.2 72 81 97
24.23 22.484 115.56 73 83 98
24.752 22.558 115.84 75 81 93
25.257 22.579 115.87 74 82 95
25.757 22.583 115.8 74 83 95
26.271 22.622 115.9 74 79 96
26.794 22.68 116.09 76 83 94
27.304 22.703 116.11 74 82 94
27.818 22.732 116.15 76 81 91
28.296 22.685 115.8 73 82 94
28.867 22.827 116.4 73 81 96
29.407 22.899 116.64 75 81 94
29.954 22.977 116.9 70 78 92
30.521 23.085 117.31 70 79 93
31.047 23.116 117.33 73 80 93
31.571 23.143 117.33 74 79 94
32.137 23.234 117.64 70 77 92
32.612 23.178 117.22 71 78 90
33.167 23.247 117.41 71 80 92
33.775 23.388 117.94 71 79 89
34.296 23.399 117.84 73 80 88
34.839 23.44 117.87 71 78 91
35.438 23.552 118.25 74 79 90
35.973 23.576 118.2 69 78 88
36.5 23.589 118.08 70 77 91
37.173 23.781 118.83 69 78 88
37.655 23.735 118.42 68 74 88
38.228 23.796 118.52 68 76 85
38.824 23.883 118.74 68 76 84
39.575 24.137 119.77 68 73 85
40.007 24.033 119.05 67 74 87
40.52 24.019 118.77 67 75 86
41.21 24.192 119.38 68 75 81
41.773 24.227 119.32 67 72 85
42.332 24.257 119.23 66 74 84
42.997 24.39 119.62 63 72 82
43.606 24.463 119.73 65 73 86
44.295 24.609 120.17 65 71 80
44.945 24.714 120.42 62 73 82
45.646 24.862 120.85 63 70 81
46.178 24.853 120.54 61 68 82
46.834 24.954 120.74 63 71 84
47.588 25.134 121.31 61 68 83
48.083 25.091 120.81 61 69 81
48.768 25.207 121.06 62 70 81
49.488 25.347 121.41 61 68 83
50.26 25.525 121.93 63 70 81
50.84 25.546 121.7 62 68 80
51.429 25.573 121.5 62 69 82
52.228 25.76 122.04 62 69 84
52.897 25.844 122.08 61 67 80
53.612 25.959 122.27 59 65 81
54.595 26.265 123.32 0 0 0
55.146 26.253 122.9 0 0 0
57.352 27.411 127.82 0 0 0
61.664 30 139.23 5 3 5
62.355 30.032 138.94 0 0 0
64.106 30.782 141.89 0 0 0
64.928 30.891 141.92 0 0 0
64.75 30.339 138.96 0 0 0
65.463 30.381 138.67 0 0 0
66.528 30.647 139.38 0 0 0
67.213 30.666 138.98 0 0 0
71.749 33.09 149.24 0 0 0
75.151 34.754 156.06 0 0 0
76.488 35.118 157.09 0 0 0
77.269 35.141 156.59 0 0 0
77.925 35.089 155.76 0 0 0
78.931 35.245 155.83 0 0 0
79.88 35.363 155.73 0 0 0
80.714 35.414 155.32 0 0 0
-45.022 31.515 135.3 44 29 22
-45.974 32.386 139.58 28 18 16
-44.162 31.783 137.6 18 13 10
-43.176 31.617 137.46 8 6 3
-42.664 31.71 138.42 4 3 3
-42.542 32.023 140.33 3 3 1
-44.136 33.315 146.48 30 42 49
-42.103 32.561 143.77 3 2 2
-39.145 31.253 138.6 3 2 2
-36.886 30.324 135.05 3 2 2
-38.383 31.601 141.16 29 40 50
-38.121 31.853 142.78 5 3 2
-41.546 34.356 154.36 28 40 51
-40.486 34.158 154.01 4 2 2
-40.091 34.371 155.47 4 3 2
-34.893 31.55 143.37 7 6 4
-38.669 34.408 156.65 5 4 3
-40.185 35.874 163.74 0 0 0
-34.167 32.419 148.65 10 8 8
-32.419 31.719 145.93 11 10 9
-25.764 27.675 128 18 14 15
-22.891 26.114 121.26 106 99 83
-22.128 25.978 120.98 102 94 90
-21.65 26.04 121.6 102 95 86
-20.845 25.87 121.15 103 93 88
-20.259 25.853 121.39 101 93 84
-19.525 25.727 121.12 102 92 84
-18.872 25.657 121.1 102 91 84
-18.262 25.619 121.22 101 92 86
-17.702 25.617 121.51 104 95 86
-17.073 25.562 121.53 103 96 85
-16.494 25.544 121.72 102 94 87
-15.856 25.477 121.68 102 96 84
-15.207 25.4 121.58 103 93 83
-14.504 25.274 121.25 101 93 83
-13.9 25.228 121.28 100 94 81
-13.215 25.11 120.97 100 95 81
-12.631 25.078 121.05 103 95 84
-12.036 25.034 121.08 105 94 84
-11.437 24.984 121.07 104 94 90
-10.918 25.008 121.4 104 97 83
-10.229 24.869 120.95 103 97 87
-9.6937 24.876 121.19 101 98 86
-9.0565 24.781 120.94 107 93 88
-8.5538 24.819 121.31 102 97 87
-7.9172 24.719 121.02 104 96 89
-7.421 24.764 121.42 101 96 86
-6.7854 24.659 121.1 101 98 90
-6.1764 24.579 120.89 102 92 88
-5.6134 24.547 120.9 100 97 86
-5.0881 24.559 121.12 99 95 87
-4.5328 24.534 121.16 102 93 87
-3.8816 24.39 120.61 97 95 86
-3.3508 24.39 120.76 99 92 83
-2.8205 24.391 120.91 101 91 82
-2.286 24.387 121.03 99 93 84
-1.6866 24.293 120.7 97 92 84
-1.1595 24.295 120.84 99 93 85
-0.64087 24.31 121.03 98 94 80
-0.050191 24.217 120.7 94 96 85
0.48212 24.209 120.77 99 92 84
0.9539 24.297 121.31 98 91 87
1.5916 24.116 120.53 95 90 82
2.1238 24.103 120.57 95 91 83
2.6517 24.096 120.63 94 88 85
3.0786 24.276 121.6 95 88 80
2.8715 25.689 128.61 67 67 61
2.4547 27.64 138.25 73 71 66
2.7084 28.357 141.86 65 61 59
3.1366 28.758 143.91 50 49 44
3.4794 29.393 147.11 30 28 24
3.8384 30.051 150.42 14 11 9
3.6627 32.129 160.71 74 59 50
1.9595 38.511 192.15 3 3 2
2.0345 40.617 202.6 3 2 4
3.0987 40.019 199.73 3 3 1
4.8617 37.108 185.48 4 3 3
5.2961 38.332 191.56 91 85 81
6.8033 35.789 179.09 83 69 62
8.3957 32.488 162.88 82 67 61
9.7836 29.482 148.1 65 54 49
10.373 29.691 149.15 5 4 5
11.152 28.945 145.5 3 3 2
11.784 28.887 145.23 3 2 3
12.394 28.96 145.6 3 2 4
12.998 29.105 146.32 4 3 2
13.626 29.083 146.22 4 3 1
14.281 28.728 144.47 3 3 3
14.878 29.03 145.95 4 3 3
15.496 29.165 146.6 4 3 2
16.126 28.96 145.57 4 3 4
16.746 29.544 148.43 79 90 98
17.374 29.22 146.81 4 3 3
17.976 28.586 143.65 5 4 3
18.558 28.042 140.93 4 1 2
19.065 26.845 135 1 1 1
19.58 26.217 131.87 24 24 35
20.062 25.541 128.49 123 124 132
20.501 24.75 124.56 129 128 143
20.854 23.63 119 132 134 145
21.212 22.791 114.82 94 101 111
21.71 22.816 114.89 73 84 96
22.219 22.883 115.16 79 84 97
22.733 22.963 115.48 63 70 81
23.216 22.911 115.16 73 79 91
23.729 22.974 115.4 74 82 93
24.254 23.067 115.78 74 85 94
24.752 23.064 115.68 75 80 93
25.249 23.062 115.59 74 81 94
25.786 23.168 116.02 77 80 94
26.3 23.202 116.09 75 83 95
26.78 23.153 115.76 73 79 98
27.316 23.236 116.06 76 83 96
27.844 23.296 116.25 74 82 93
28.38 23.369 116.49 74 82 95
28.872 23.345 116.26 76 81 93
29.443 23.479 116.79 73 81 93
29.956 23.492 116.73 74 81 94
30.543 23.639 117.32 72 81 90
31.043 23.623 117.11 72 80 92
31.592 23.692 117.31 73 82 92
32.148 23.767 117.53 71 80 90
32.672 23.789 117.49 71 79 93
33.262 23.908 117.91 73 79 91
33.791 23.931 117.86 70 79 88
34.224 23.814 117.14 71 80 88
34.917 24.068 118.2 70 77 88
35.398 24.019 117.79 70 77 91
36.001 24.135 118.17 69 77 91
36.552 24.178 118.2 70 74 89
37.095 24.21 118.17 70 76 87
37.691 24.303 118.42 67 77 87
38.249 24.348 118.44 67 74 85
38.872 24.466 118.8 65 74 86
39.49 24.574 119.1 68 73 83
39.997 24.553 118.79 67 75 87
40.6 24.637 118.97 69 74 88
41.356 24.881 119.89 66 75 85
41.905 24.898 119.75 65 74 85
42.515 24.978 119.89 64 73 83
42.987 24.917 119.36 64 73 84
43.671 25.066 119.81 67 72 81
44.291 25.148 119.94 66 72 80
45.059 25.366 120.69 61 73 86
45.556 25.326 120.24 62 70 85
46.27 25.484 120.7 64 68 83
46.964 25.618 121.04 61 71 84
47.564 25.666 120.98 63 68 80
48.181 25.728 120.97 63 69 80
48.861 25.84 121.18 60 68 81
49.568 25.971 121.48 61 67 79
50.281 26.103 121.77 58 68 78
51.048 26.273 122.23 59 67 78
51.664 26.32 122.11 58 66 75
52.235 26.33 121.82 59 67 74
52.88 26.397 121.78 59 68 79
53.637 26.546 122.1 57 65 77
54.696 26.916 123.41 0 0 0
55.24 26.898 122.95 0 0 0
56.133 27.131 123.63 0 0 0
57.338 27.581 125.24 0 0 0
62.414 30.728 138.84 0 0 0
63.994 31.374 141.25 0 0 0
61.522 29.243 131.37 0 0 0
63.73 30.314 135.65 0 0 0
66.216 31.541 140.56 0 0 0
66.574 31.344 139.22 0 0 0
70.546 33.485 148.05 0 0 0
75.382 36.123 158.97 0 0 0
76.147 36.132 158.43 0 0 0
76.862 36.11 157.74 0 0 0
77.18 35.846 156.01 0 0 0
77.992 35.889 155.59 0 0 0
79.503 36.349 156.94 0 0 0
79.559 35.937 154.57 0 0 0
80.894 36.284 155.41 0 0 0
-50.642 35.231 147.49 82 56 41
-45.046 32.581 137.13 76 50 35
-45.855 33.404 141.14 69 48 33
-43.98 32.75 138.99 44 31 23
-43.345 32.78 139.69 28 19 13
-42.461 32.669 139.78 21 15 10
-40.938 32.187 138.3 18 12 9
-40.129 32.111 138.51 16 10 9
-40.481 32.72 141.64 15 10 8
-39.196 32.363 140.64 15 9 7
-38.959 32.633 142.31 15 9 7
-35.784 31.108 136.25 15 10 9
-36.701 32.086 140.96 13 10 6
-36.041 32.097 141.5 15 9 7
-34.825 31.754 140.48 14 10 7
-34.595 32.04 142.19 16 11 8
-32.944 31.402 139.86 18 13 11
-35.272 33.387 149.03 8 11 17
-33.369 32.581 145.94 18 14 11
-31.455 31.746 142.69 19 15 11
-25.891 28.363 128.1 30 19 20
-22.959 26.73 121.2 101 93 74
-22.115 26.534 120.68 101 94 89
-21.629 26.591 121.27 101 93 89
-20.926 26.492 121.15 106 95 90
-20.39 26.513 121.56 102 94 87
-19.521 26.283 120.84 102 91 84
-18.998 26.312 121.28 101 92 84
-18.338 26.235 121.23 105 93 87
-17.674 26.152 121.14 101 93 83
-17.015 26.07 121.06 102 96 83
-16.481 26.089 121.42 104 96 86
-15.754 25.946 121.04 104 92 80
-15.04 25.81 120.68 104 94 80
-14.492 25.812 120.95 101 95 83
-13.923 25.796 121.13 102 94 83
-13.3 25.731 121.07 100 94 83
-12.749 25.729 121.3 100 92 85
-12.125 25.659 121.21 105 95 86
-11.635 25.714 121.69 104 95 84
-11.003 25.633 121.53 104 95 84
-10.299 25.478 121.03 105 96 88
-9.6391 25.361 120.69 104 99 87
-9.1659 25.431 121.22 102 97 84
-8.6018 25.408 121.31 104 97 83
-7.9294 25.268 120.85 105 97 88
-7.3651 25.24 120.9 101 93 87
-6.7527 25.158 120.69 104 96 87
-6.1444 25.075 120.48 105 95 84
-5.6453 25.117 120.84 102 95 86
-5.0833 25.085 120.86 103 97 86
-4.5531 25.091 121.04 102 94 89
-3.9402 24.992 120.73 101 95 85
-3.3842 24.962 120.73 99 91 85
-2.9177 25.049 121.29 99 94 84
-2.3356 24.983 121.11 94 90 84
-1.7391 24.892 120.82 100 93 80
-1.168 24.833 120.67 100 92 86
-0.68626 24.904 121.12 99 92 85
-0.10614 24.827 120.88 97 91 78
0.44339 24.794 120.83 97 94 83
1.0324 24.694 120.47 97 93 83
1.5807 24.656 120.39 98 91 84
2.0993 24.667 120.54 95 92 83
2.5607 24.782 121.19 94 88 83
3.0556 24.843 121.57 95 88 83
2.886 26.213 128.22 68 62 56
2.4526 28.236 138.01 74 72 64
2.5915 29.214 142.78 59 59 54
3.0081 29.66 145.01 47 44 41
3.4218 30.155 147.47 28 26 23
3.7931 30.803 150.66 14 11 8
3.6376 32.877 160.71 73 56 44
2.3641 38.222 186.49 3 3 3
