26.633 -7.2953 156.51 143 144 82
27.277 -7.2901 156.41 145 146 83
27.785 -7.2107 154.37 54 52 28
28.197 -7.0891 151.22 42 40 25
28.704 -7.027 149.62 59 61 36
29.221 -6.9754 148.29 111 110 65
29.834 -6.9707 148.18 131 127 75
30.387 -6.941 147.41 134 126 75
30.966 -6.9239 146.96 134 130 74
31.586 -6.9239 146.96 130 128 76
32.199 -6.9207 146.87 132 128 72
32.827 -6.9232 146.92 132 125 74
33.467 -6.9292 147.06 130 128 73
34.117 -6.9375 147.26 134 127 76
34.723 -6.9311 147.07 131 125 74
35.52 -6.984 148.42 130 126 70
36.144 -6.9812 148.31 126 124 70
36.846 -7.0011 148.79 131 126 75
37.591 -7.0314 149.54 126 121 74
38.418 -7.0822 150.81 127 122 74
39.06 -7.0808 150.72 124 124 71
39.924 -7.1362 152.11 125 122 71
40.806 -7.1928 153.52 124 124 74
41.506 -7.2018 153.68 126 122 71
42.305 -7.2336 154.43 124 120 73
42.989 -7.237 154.44 123 121 72
43.641 -7.2326 154.24 124 123 73
44.592 -7.2941 155.75 123 120 73
45.252 -7.2899 155.54 122 119 67
46.053 -7.3152 156.09 123 118 72
46.74 -7.3156 156 122 120 72
47.626 -7.3558 156.92 120 119 76
48.499 -7.3915 157.73 121 117 69
49.04 -7.3616 156.83 120 119 73
49.877 -7.3884 157.39 116 115 74
50.593 -7.3915 157.33 118 115 71
51.505 -7.4298 158.18 118 115 75
52.082 -7.407 157.44 117 116 76
53.029 -7.4489 158.36 115 114 76
53.866 -7.4704 158.75 115 116 84
54.636 -7.4796 158.82 112 107 80
55.34 -7.4775 158.59 110 108 86
56.229 -7.505 159.12 104 104 89
57.025 -7.5166 159.23 99 102 85
57.761 -7.5182 159.08 95 101 89
58.633 -7.5402 159.44 93 96 86
59.413 -7.5476 159.42 90 92 91
60.329 -7.5743 159.89 86 91 88
61.048 -7.5717 159.6 83 90 86
61.802 -7.5736 159.43 83 89 85
62.728 -7.5995 159.85 83 88 83
63.465 -7.5982 159.58 80 85 78
64.53 -7.6412 160.43 80 83 75
65.225 -7.6332 159.97 79 80 73
66.145 -7.6548 160.26 74 82 77
67.038 -7.6719 160.42 73 78 75
67.883 -7.6823 160.41 74 77 75
68.653 -7.6826 160.14 70 74 69
69.682 -7.7146 160.66 67 70 64
70.6 -7.732 160.8 0 0 0
71.298 -7.7222 160.25 0 0 0
71.987 -7.7112 159.67 0 0 0
72.295 -7.6559 157.99 0 0 0
72.613 -7.6029 156.36 0 0 0
72.79 -7.5351 154.36 0 0 0
73.502 -7.5287 153.88 0 0 0
73.473 -7.4404 151.38 0 0 0
73.968 -7.4112 150.33 0 0 0
73.908 -7.3227 147.83 0 0 0
74.182 -7.2717 146.25 0 0 0
-33.324 -6.223 116.3 75 74 38
-32.914 -6.236 117.09 78 76 42
-31.674 -6.164 115.85 75 74 40
-30.81 -6.1293 115.49 62 63 33
-30.055 -6.1052 115.37 46 46 27
-29.765 -6.1299 116.42 54 54 30
-30.028 -6.2145 118.93 55 49 29
-29.794 -6.2468 120.17 66 64 34
-29.122 -6.2319 120.27 76 72 42
-29.003 -6.278 121.84 74 71 42
-28.209 -6.2494 121.59 78 73 43
-27.956 -6.2815 122.83 77 69 38
-27.904 -6.3376 124.66 78 74 40
-27.194 -6.3183 124.62 74 70 38
-26.767 -6.332 125.4 76 72 40
-26.738 -6.3935 127.38 73 71 36
-26.047 -6.3765 127.39 81 78 41
-25.453 -6.371 127.67 79 78 44
-25.442 -6.4379 129.79 79 78 41
-24.815 -6.429 129.99 83 80 42
-24.562 -6.4675 131.38 85 84 46
-24.36 -6.5138 132.98 90 87 46
-23.702 -6.5016 133.08 92 87 48
-23.258 -6.5176 133.9 95 90 50
-22.768 -6.5279 134.58 96 93 49
-22.423 -6.5584 135.76 94 92 46
-22.151 -6.6 137.24 103 94 52
-21.687 -6.6159 138.05 96 92 51
-21.228 -6.633 138.89 104 101 53
-20.894 -6.6689 140.22 102 98 56
-20.296 -6.6671 140.56 102 99 55
-19.898 -6.6952 141.69 104 98 54
-19.45 -6.7167 142.63 110 106 58
-19.252 -6.7778 144.62 107 104 56
-18.634 -6.7751 144.93 107 108 58
-18.052 -6.7779 145.37 114 110 59
-17.482 -6.7829 145.88 109 103 57
-17.326 -6.857 148.21 104 102 57
-16.59 -6.8358 148.01 108 104 60
-16.359 -6.901 150.11 105 99 55
-15.615 -6.8789 149.88 106 100 55
-15.455 -6.9603 152.41 105 105 56
-14.709 -6.9383 152.17 109 108 58
-14.242 -6.9674 153.3 112 110 60
-13.699 -6.9835 154.08 108 107 62
-13.219 -7.0126 155.21 110 107 59
-11.754 -6.8482 151.07 114 112 62
-6.1913 -5.8469 124.1 123 127 118
-4.9428 -5.6937 120.18 131 120 63
-4.4025 -5.6837 120.15 132 116 38
-3.7944 -5.6586 119.7 114 98 27
-3.2886 -5.6552 119.85 111 94 26
-2.6555 -5.6228 119.19 110 94 26
-2.1629 -5.6217 119.39 114 94 27
-1.6253 -5.6099 119.29 109 91 25
-1.1509 -5.6132 119.61 111 90 27
-0.53964 -5.5823 118.97 109 91 25
-0.013137 -5.5718 118.89 107 80 26
0.48357 -5.5689 119.02 110 91 26
1.0072 -5.5586 118.93 108 87 26
1.5402 -5.5451 118.76 104 86 24
2.1251 -5.5157 118.14 103 84 24
2.5603 -5.5301 118.73 99 84 23
3.077 -5.5201 118.64 96 81 25
3.6376 -5.4952 118.13 98 81 23
3.9989 -5.5363 119.47 94 78 24
4.623 -5.4882 118.29 89 74 23
5.0981 -5.4912 118.55 86 74 21
5.5744 -5.4942 118.81 83 74 18
6.1975 -5.4391 117.42 80 67 20
6.6068 -5.4686 118.42 85 68 23
7.17 -5.4338 117.59 92 81 24
7.4955 -5.5055 119.78 86 72 24
7.7542 -5.6182 123.14 84 74 26
6.8889 -6.325 143.43 108 119 135
4.0468 -8.2053 197.22 63 62 35
4.6897 -8.2967 200.06 63 65 35
5.5357 -8.2746 199.66 62 62 36
6.3408 -8.2776 199.98 65 60 35
7.1761 -8.2599 199.69 62 60 35
8.0345 -8.2215 198.81 61 60 37
8.9677 -8.1106 195.83 61 60 34
10.893 -7.0053 164.28 89 76 23
12.236 -6.2631 143.09 112 113 69
12.985 -6.056 137.27 88 85 48
13.585 -6 135.78 80 77 39
14.149 -5.9878 135.56 73 69 38
14.711 -5.9746 135.3 69 64 34
15.272 -5.9595 134.97 62 61 34
15.829 -5.9475 134.74 61 60 31
16.384 -5.9418 134.68 63 60 30
16.938 -5.9185 134.11 62 57 32
17.492 -5.9306 134.56 60 57 32
18.041 -5.9064 133.96 57 56 30
18.592 -5.9031 133.95 60 57 29
19.153 -5.9183 134.48 59 55 31
19.704 -5.9099 134.32 59 58 29
20.259 -5.9087 134.37 59 60 32
20.811 -5.9035 134.29 56 54 31
21.377 -5.9128 134.63 57 57 33
21.921 -5.8984 134.29 53 52 28
22.493 -5.9098 134.68 55 51 29
23.059 -5.9141 134.87 52 52 30
23.653 -5.9369 135.59 52 54 27
24.306 -5.9936 137.3 55 55 25
25.502 -6.3659 148.21 142 147 80
26.331 -6.4838 151.7 145 142 86
26.529 -6.2557 145.09 53 52 27
27.043 -6.2099 143.79 40 45 24
27.462 -6.1244 141.33 116 114 60
27.962 -6.0829 140.15 130 125 70
28.398 -6.0191 138.31 134 131 72
28.991 -6.0228 138.44 134 130 74
29.56 -6.0173 138.3 132 128 71
30.155 -6.0211 138.43 131 129 70
30.676 -5.9985 137.77 133 124 72
31.272 -6.0024 137.89 126 121 68
31.832 -5.9942 137.65 124 124 67
32.427 -5.9972 137.74 124 120 68
32.997 -5.9921 137.58 122 122 68
33.598 -5.9963 137.69 122 121 64
34.206 -6.0015 137.83 126 116 67
34.827 -6.0099 138.06 122 121 67
35.429 -6.0122 138.1 120 120 64
36.028 -6.0135 138.11 118 118 67
36.62 -6.0129 138.06 118 116 64
37.466 -6.0722 139.75 118 118 65
37.98 -6.0514 139.1 120 119 69
38.739 -6.0864 140.08 119 118 68
39.429 -6.1043 140.54 119 119 69
40.019 -6.0998 140.36 120 113 68
40.836 -6.1421 141.53 120 116 64
41.438 -6.1388 141.37 117 115 64
42.221 -6.1711 142.24 118 117 66
42.849 -6.1719 142.19 116 114 67
43.68 -6.2104 143.22 116 112 66
44.615 -6.266 144.75 114 112 64
45.533 -6.3157 146.1 114 113 62
46.175 -6.3148 145.98 114 112 63
47.078 -6.3584 147.14 114 114 66
47.915 -6.389 147.92 116 112 60
48.984 -6.456 149.75 114 111 63
49.964 -6.5059 151.07 115 110 60
50.998 -6.5619 152.56 116 110 66
51.72 -6.5674 152.58 113 112 65
52.912 -6.6437 154.64 111 110 63
53.684 -6.6544 154.8 113 111 64
54.696 -6.6994 155.95 110 108 63
55.509 -6.7143 156.21 109 107 63
56.523 -6.7565 157.26 111 109 69
57.242 -6.7563 157.08 110 104 66
58.261 -6.7966 158.05 104 106 63
59.02 -6.8006 157.98 105 103 64
60.013 -6.8349 158.77 103 102 62
60.893 -6.8532 159.09 103 103 63
61.667 -6.8573 159 101 99 65
62.648 -6.8868 159.63 97 97 66
63.466 -6.8951 159.64 88 88 74
64.23 -6.8964 159.45 82 84 74
65.141 -6.915 159.75 79 84 74
65.983 -6.9245 159.78 77 79 75
66.917 -6.9441 160.09 77 81 74
67.796 -6.9568 160.19 72 78 71
68.6 -6.9603 160.03 72 73 70
69.482 -6.972 160.09 69 71 67
70.509 -6.9989 160.58 0 0 0
71.281 -6.9976 160.26 0 0 0
71.711 -6.9598 158.91 0 0 0
71.83 -6.8907 156.69 0 0 0
72.576 -6.8874 156.31 0 0 0
72.733 -6.8243 154.25 0 0 0
73.505 -6.824 153.94 0 0 0
73.538 -6.7508 151.61 0 0 0
74.275 -6.7474 151.21 0 0 0
74.505 -6.6953 149.46 0 0 0
73.746 -6.551 145.16 0 0 0
-33.245 -5.6613 116.13 73 71 38
-32.446 -5.6375 115.98 69 68 37
-31.382 -5.5888 115.15 61 60 33
-30.735 -5.5775 115.32 63 60 33
-30.047 -5.562 115.37 72 71 40
-29.735 -5.5817 116.36 59 56 29
-29.837 -5.6413 118.45 63 58 35
-29.807 -5.6894 120.22 65 66 37
-29.418 -5.7036 121.08 69 66 36
-29.088 -5.7238 122.09 70 68 38
-28.477 -5.7164 122.35 66 66 33
-27.949 -5.7172 122.83 68 63 35
-27.858 -5.7628 124.54 73 70 36
-27.187 -5.7493 124.62 66 66 35
-26.732 -5.7583 125.31 71 68 35
-26.275 -5.7672 126.01 71 69 38
-26.125 -5.8094 127.64 72 70 35
-25.474 -5.7981 127.75 73 66 39
-25.163 -5.8241 128.93 77 74 40
-24.729 -5.837 129.72 76 72 36
-24.203 -5.8398 130.23 78 76 39
-23.998 -5.8797 131.8 78 74 39
-23.525 -5.8896 132.5 83 80 41
-23.151 -5.9114 133.55 85 83 43
-22.771 -5.9332 134.6 85 78 41
-22.418 -5.9589 135.76 83 82 43
-21.785 -5.9509 135.94 90 82 44
-21.628 -6.0023 137.85 85 82 42
-20.975 -5.9924 137.96 87 81 44
-20.79 -6.0427 139.84 88 91 43
-20.217 -6.0437 140.27 89 86 47
-19.666 -6.0477 140.78 89 86 44
-19.25 -6.0703 141.84 93 87 46
-18.8 -6.0891 142.79 92 86 47
-18.17 -6.0834 143 96 86 47
-17.946 -6.1353 144.93 95 93 49
-17.385 -6.1403 145.46 94 91 49
-16.835 -6.1474 146.05 89 85 49
-16.264 -6.1515 146.54 88 88 44
-15.779 -6.1693 147.45 91 89 48
-15.302 -6.189 148.41 92 90 47
-14.893 -6.2203 149.72 89 86 40
-14.331 -6.2285 150.32 88 84 44
-13.913 -6.2607 151.66 86 85 46
-13.246 -6.2525 151.76 88 84 47
-12.637 -6.254 152.15 91 84 48
-11.343 -6.1356 148.86 86 84 48
-6.1785 -5.317 124.03 104 102 61
-4.9564 -5.1856 120.26 130 115 53
-4.324 -5.159 119.7 130 111 35
-3.7677 -5.146 119.55 116 94 28
-3.2627 -5.1426 119.69 103 88 24
-2.758 -5.1393 119.83 95 79 24
-2.1661 -5.1179 119.41 99 84 26
-1.6554 -5.1128 119.49 108 91 25
-1.1279 -5.104 119.45 108 95 25
-0.64028 -5.1037 119.67 111 92 26
-0.13152 -5.0988 119.74 111 92 26
0.4125 -5.0854 119.54 114 96 29
1.0542 -5.0475 118.56 121 100 30
1.5632 -5.0409 118.57 123 103 32
2.0639 -5.0362 118.63 132 109 35
2.564 -5.0316 118.69 134 112 33
3.148 -5.0035 118 136 121 36
3.644 -4.999 118.06 140 125 40
4.1427 -4.9937 118.08 138 131 42
4.722 -4.963 117.3 136 126 41
5.2131 -4.9588 117.34 139 125 36
5.7149 -4.9508 117.27 132 121 35
6.0725 -4.9934 118.81 130 120 33
6.6312 -4.9658 118.1 126 115 33
7.145 -4.9533 117.88 93 81 25
7.4488 -5.0257 120.37 86 75 25
7.7312 -5.1157 123.43 84 76 27
6.7608 -5.789 145.27 108 114 132
4.0011 -7.4147 197.87 66 67 39
4.7355 -7.4489 199.23 65 61 34
5.5962 -7.4186 198.51 64 62 37
6.3549 -7.4455 199.62 61 58 32
7.1688 -7.442 199.75 63 61 36
7.9883 -7.435 199.76 63 62 34
8.9359 -7.3281 196.52 62 62 37
10.748 -6.4515 168.25 93 79 26
12.23 -5.6754 143.18 118 115 76
12.977 -5.4947 137.44 88 87 47
13.581 -5.4402 135.81 82 78 42
14.157 -5.4106 134.98 72 68 35
14.712 -5.4068 134.99 68 63 32
15.272 -5.3902 134.57 64 61 33
15.824 -5.3948 134.85 63 62 33
16.38 -5.3793 134.46 60 58 32
16.934 -5.3702 134.28 60 57 31
17.486 -5.3621 134.13 58 57 32
18.04 -5.3669 134.4 59 56 32
18.589 -5.3525 134.03 59 57 29
19.148 -5.3619 134.44 63 61 34
19.695 -5.3486 134.1 61 60 34
20.25 -5.3481 134.18 63 60 32
20.798 -5.3394 133.98 57 56 30
21.37 -5.3544 134.57 58 56 29
21.93 -5.355 134.67 54 51 27
22.482 -5.3492 134.55 55 52 28
23.046 -5.3516 134.71 56 54 28
23.628 -5.364 135.19 50 47 26
24.267 -5.4064 136.66 53 54 28
25.16 -5.5762 142.34 135 134 73
25.566 -5.4829 139.32 35 30 15
26.038 -5.4312 137.67 99 99 51
26.609 -5.4285 137.63 113 107 57
27.086 -5.3869 136.3 124 121 65
27.602 -5.3644 135.6 128 125 71
28.138 -5.351 135.19 126 121 69
28.694 -5.3458 135.06 123 120 68
29.271 -5.3479 135.16 121 120 63
29.772 -5.3247 134.42 120 116 64
30.32 -5.3179 134.21 118 116 66
30.861 -5.3092 133.95 116 114 65
31.427 -5.3079 133.92 115 115 60
32.003 -5.3093 133.98 116 112 66
32.588 -5.3125 134.09 116 109 62
33.161 -5.3122 134.08 117 109 60
33.728 -5.3101 134.01 114 109 60
34.292 -5.3072 133.91 110 106 62
34.849 -5.3025 133.75 110 108 58
35.397 -5.2961 133.53 110 105 58
35.97 -5.2952 133.48 107 108 61
36.698 -5.3265 134.49 111 110 62
37.274 -5.3247 134.41 110 107 61
37.863 -5.3256 134.41 109 108 61
38.441 -5.3239 134.32 110 106 60
39.115 -5.3402 134.82 111 107 59
39.722 -5.3431 134.87 109 106 61
40.29 -5.3388 134.68 109 104 60
40.911 -5.3436 134.79 107 104 61
41.46 -5.3359 134.48 109 108 59
42.149 -5.3515 134.93 108 108 62
42.889 -5.3742 135.62 107 108 60
43.478 -5.372 135.47 108 106 60
44.346 -5.4126 136.74 104 103 55
44.997 -5.4185 136.85 104 103 60
45.632 -5.4218 136.88 104 100 56
46.265 -5.4243 136.87 104 99 57
47.202 -5.4695 138.26 103 101 59
47.896 -5.4791 138.48 102 101 57
48.825 -5.5199 139.72 105 103 57
49.654 -5.5456 140.45 104 101 56
50.328 -5.55 140.48 100 101 55
51.236 -5.5838 141.46 103 101 58
52.493 -5.6603 143.84 103 99 57
53.531 -5.7065 145.22 103 100 56
54.738 -5.7715 147.21 101 100 58
56.123 -5.855 149.79 100 99 58
57.3 -5.9111 151.46 101 97 57
58.511 -5.969 153.19 99 98 59
59.835 -6.0376 155.25 100 99 56
60.584 -6.0397 155.13 99 98 56
61.936 -6.1074 157.15 99 96 57
62.677 -6.1069 156.94 97 97 56
63.922 -6.1597 158.45 95 93 54
64.71 -6.1628 158.34 94 94 57
65.864 -6.2032 159.43 96 94 58
66.717 -6.2117 159.49 93 92 58
67.656 -6.2282 159.79 93 92 56
68.54 -6.2386 159.89 90 89 59
69.31 -6.2375 159.61 82 82 55
70.325 -6.2594 160.07 0 0 0
70.906 -6.2397 159.18 0 0 0
71.484 -6.22 158.29 0 0 0
72.009 -6.1959 157.26 0 0 0
72.738 -6.1904 156.82 0 0 0
72.717 -6.1184 154.25 0 0 0
73.387 -6.1085 153.66 0 0 0
73.738 -6.071 152.2 0 0 0
73.924 -6.0202 150.31 0 0 0
74.181 -5.9765 148.65 0 0 0
73.751 -5.8769 145.22 0 0 0
-33.703 -5.1434 117.23 70 69 36
-32.576 -5.0968 116.31 69 67 37
-31.578 -5.0594 115.65 67 63 34
-30.828 -5.0411 115.56 49 48 27
-30.083 -5.0228 115.47 40 37 21
-29.454 -5.0136 115.66 50 49 27
-29.733 -5.08 118.19 55 50 27
-29.747 -5.1255 120.08 59 56 32
-29.338 -5.1359 120.87 58 55 30
-28.823 -5.1372 121.38 65 61 33
-28.532 -5.1582 122.51 62 58 33
-27.922 -5.1515 122.76 64 59 33
-27.564 -5.167 123.72 62 62 33
-27.151 -5.1781 124.53 63 56 31
-26.552 -5.1723 124.8 63 60 31
-26.402 -5.2081 126.4 65 61 34
-25.913 -5.2129 127 66 64 34
-25.45 -5.2203 127.69 67 61 33
-25.203 -5.2489 129.06 70 66 35
-24.777 -5.2607 129.89 76 71 37
-24.401 -5.2777 130.88 72 71 34
-23.958 -5.2885 131.68 75 72 40
-23.555 -5.3038 132.61 77 76 38
-23.071 -5.3111 133.29 77 71 34
-22.883 -5.3498 135 77 74 35
-22.136 -5.3302 134.77 76 73 36
-21.853 -5.3601 136.19 79 73 39
-21.418 -5.3744 137.09 81 77 39
-20.994 -5.3904 138.04 82 78 39
-20.39 -5.3865 138.33 79 78 39
-20.004 -5.4077 139.45 81 82 43
-19.692 -5.4382 140.89 79 76 41
-19.175 -5.4456 141.54 83 80 40
-18.541 -5.4392 141.73 83 80 41
-18.181 -5.4663 143.05 82 76 40
-17.525 -5.4575 143.15 83 80 43
-17.288 -5.5015 145.05 85 80 43
-16.582 -5.4868 144.93 80 78 40
-16.255 -5.5214 146.51 81 78 41
-15.777 -5.5373 147.44 80 78 40
-15.263 -5.549 148.22 84 81 42
-14.659 -5.5488 148.6 80 75 38
-14.276 -5.5799 150.05 78 74 37
-13.69 -5.5831 150.53 79 76 38
-13.028 -5.5755 150.63 76 72 40
-12.58 -5.5998 151.85 78 75 39
-11.058 -5.4608 147.32 78 76 38
-5.9947 -4.761 123.02 81 76 40
-5.0957 -4.6971 121.04 117 106 53
-4.358 -4.6567 119.89 130 111 33
-3.8109 -4.6467 119.8 112 95 27
-3.3438 -4.65 120.18 96 80 22
-2.8087 -4.6416 120.15 96 77 22
-2.2018 -4.6201 119.64 95 80 24
-1.6588 -4.6094 119.51 101 86 24
-1.2098 -4.6162 120 108 93 25
-0.53779 -4.5799 118.94 109 92 26
-0.036231 -4.5761 119.04 109 95 26
0.4769 -4.5698 119.05 115 96 28
1.0083 -4.5594 118.91 111 96 29
1.4961 -4.5582 119.09 113 93 27
2.0278 -4.5471 118.92 112 97 32
2.5535 -4.537 118.77 115 96 32
3.0534 -4.5326 118.83 110 91 27
3.5592 -4.5266 118.82 109 92 30
4.0735 -4.5182 118.72 107 90 29
4.6253 -4.4993 118.24 106 90 27
5.0739 -4.5082 118.76 103 85 28
5.6202 -4.4893 118.27 100 84 27
6.1405 -4.4771 118.02 100 85 27
6.658 -4.465 117.76 97 81 26
7.1295 -4.4675 118.04 95 81 25
7.4384 -4.5284 120.47 88 78 24
7.6607 -4.629 124.38 86 76 30
6.6671 -5.2245 146.61 105 117 130
3.9762 -6.6103 198.2 63 64 34
4.7883 -6.6048 198.28 64 64 36
5.5321 -6.6323 199.58 64 63 38
6.3505 -6.6261 199.62 63 61 32
7.16 -6.6249 199.84 62 60 33
8.0252 -6.5902 198.81 64 61 34
8.9229 -6.5277 196.73 62 62 34
10.604 -5.8643 172.15 61 60 34
12.211 -5.0977 143.64 117 115 74
12.958 -4.9426 138 92 87 46
13.569 -4.89 136.18 91 87 46
14.142 -4.8686 135.54 78 74 39
14.709 -4.8496 134.98 68 63 36
15.263 -4.8475 135.04 61 59 33
15.822 -4.8327 134.63 62 61 32
16.375 -4.8331 134.78 62 60 32
16.93 -4.812 134.12 60 58 31
17.481 -4.8053 134 62 59 31
18.033 -4.8034 134.06 58 58 32
18.592 -4.8143 134.59 61 57 32
19.138 -4.799 134.13 61 60 32
19.694 -4.7996 134.27 63 59 34
20.244 -4.7923 134.11 60 59 31
20.791 -4.7844 133.91 57 55 28
21.368 -4.8008 134.65 54 53 30
21.925 -4.7984 134.66 56 53 28
22.481 -4.7953 134.63 56 56 27
23.044 -4.7961 134.76 54 51 28
23.617 -4.8017 135.06 52 51 27
24.241 -4.8309 136.26 56 55 27
24.924 -4.8827 138.32 123 119 68
25.424 -4.8484 137.09 49 54 30
25.955 -4.8306 136.49 111 110 55
26.316 -4.7503 133.49 106 105 53
26.847 -4.7389 133.12 114 115 61
27.347 -4.7182 132.39 109 106 59
27.877 -4.7085 132.07 105 100 59
28.53 -4.7371 133.22 108 102 56
29.041 -4.7213 132.67 105 99 55
29.59 -4.7171 132.56 107 104 58
30.143 -4.7139 132.47 101 102 54
30.689 -4.7091 132.33 101 100 58
31.248 -4.7074 132.3 103 102 58
31.805 -4.705 132.24 103 105 59
32.314 -4.6918 131.76 102 101 56
32.916 -4.6996 132.08 103 101 56
33.566 -4.7167 132.75 103 101 53
34.011 -4.6905 131.76 101 99 52
34.66 -4.7061 132.37 99 102 54
35.126 -4.6854 131.58 98 99 57
35.741 -4.6934 131.89 99 100 58
36.287 -4.6882 131.69 99 98 52
36.877 -4.6909 131.79 97 98 56
37.442 -4.6889 131.7 98 95 53
37.999 -4.6854 131.55 96 94 51
38.685 -4.7028 132.2 98 93 52
39.221 -4.6955 131.9 95 90 52
39.853 -4.703 132.16 96 93 52
40.462 -4.7066 132.27 95 92 53
40.98 -4.6963 131.84 95 94 54
41.642 -4.7069 132.21 96 93 53
42.231 -4.7068 132.16 93 92 51
42.867 -4.7129 132.34 93 93 52
43.56 -4.7259 132.79 95 92 51
44.099 -4.7182 132.44 90 91 50
44.757 -4.7259 132.67 93 93 48
45.563 -4.7512 133.57 92 92 50
46.158 -4.7498 133.44 91 93 53
46.754 -4.7484 133.31 94 92 52
47.555 -4.7707 134.09 95 92 51
48.159 -4.7694 133.95 95 88 52
49.016 -4.7964 134.89 92 88 49
49.634 -4.7958 134.78 90 90 53
50.24 -4.7938 134.6 92 90 49
51.093 -4.8178 135.41 89 88 51
52.109 -4.8579 136.82 91 89 52
52.881 -4.8712 137.22 89 91 54
53.811 -4.8998 138.18 93 91 53
54.529 -4.9063 138.3 90 88 53
55.873 -4.9731 140.7 93 91 53
56.763 -4.9942 141.36 91 92 51
58.288 -5.0739 144.23 126 124 74
59.207 -5.0949 144.87 90 92 51
60.724 -5.1693 147.52 91 91 51
62.082 -5.2268 149.53 93 90 54
63.325 -5.2722 151.06 92 92 54
64.745 -5.3313 153.1 94 91 53
66.349 -5.404 155.65 93 92 54
67.222 -5.4128 155.78 92 90 57
68.037 -5.4163 155.71 93 88 56
69.462 -5.4692 157.48 0 0 0
70.286 -5.4719 157.36 0 0 0
70.96 -5.4625 156.79 0 0 0
71.79 -5.4652 156.66 0 0 0
72.476 -5.4565 156.11 0 0 0
72.622 -5.4068 154.03 0 0 0
73.25 -5.3943 153.32 0 0 0
73.414 -5.3476 151.35 0 0 0
73.721 -5.3122 149.8 0 0 0
73.922 -5.27 148 0 0 0
73.714 -5.1996 145.16 0 0 0
-33.254 -4.5545 116.17 60 60 33
-32.489 -4.5385 116.1 62 60 33
-31.446 -4.503 115.33 62 63 32
-30.709 -4.4878 115.27 61 60 31
-30.055 -4.4781 115.41 53 53 28
-29.601 -4.4824 116.04 51 52 30
-29.673 -4.5245 118.04 52 48 26
-29.677 -4.5625 119.9 50 48 26
-29.164 -4.5634 120.41 56 52 27
-28.972 -4.588 121.8 58 55 29
-28.444 -4.5881 122.28 58 56 30
-28.259 -4.6141 123.71 59 56 28
-27.627 -4.6064 123.9 62 58 31
-27.439 -4.6331 125.37 59 59 30
-26.846 -4.6284 125.67 59 58 31
-26.368 -4.6329 126.3 62 58 30
-25.88 -4.6367 126.91 62 60 31
-25.546 -4.6532 127.99 61 59 32
-25.298 -4.6773 129.37 66 64 32
-24.62 -4.6658 129.39 68 69 34
-24.352 -4.6891 130.73 70 64 33
-24.206 -4.7234 132.5 71 67 33
-23.636 -4.7218 132.89 72 72 37
-23.033 -4.7172 133.16 73 68 35
-22.705 -4.7372 134.38 72 70 34
-22.206 -4.7423 135.02 75 71 36
-21.616 -4.7392 135.34 76 71 38
-21.43 -4.7739 137.14 73 72 37
-20.913 -4.7783 137.74 80 75 38
-20.326 -4.776 138.08 78 72 36
-20.061 -4.8054 139.67 79 73 40
-19.704 -4.8266 140.94 75 71 34
-19.157 -4.8294 141.48 76 75 43
-18.709 -4.8425 142.42 80 75 39
-18.151 -4.8446 142.93 78 75 37
-17.626 -4.8505 143.57 80 72 38
-17.198 -4.8672 144.66 78 75 39
-16.712 -4.8781 145.51 75 73 40
-16.182 -4.8846 146.18 74 71 37
-15.515 -4.8759 146.23 77 74 39
-15.274 -4.9165 148.27 76 74 34
-14.652 -4.9136 148.56 73 69 37
-14.209 -4.9324 149.72 75 71 35
-13.677 -4.9411 150.47 71 66 35
-13.015 -4.934 150.57 72 71 35
-12.417 -4.9348 150.99 73 69 37
-10.658 -4.784 145.16 73 70 37
-5.9449 -4.2316 122.74 64 62 31
-4.9844 -4.1679 120.41 130 111 36
-4.2851 -4.1381 119.46 128 111 32
-3.7299 -4.1276 119.31 102 86 25
-3.3183 -4.1378 120.02 98 81 23
-2.7887 -4.1309 120.01 98 79 23
-2.187 -4.1127 119.53 101 81 22
-1.631 -4.101 119.31 107 90 25
-1.1481 -4.1007 119.57 109 93 25
-0.54987 -4.0813 119.02 109 90 28
-0.060415 -4.0797 119.21 97 77 23
0.49325 -4.0668 118.92 97 80 22
0.98145 -4.0653 119.1 101 84 26
1.5075 -4.0567 118.99 104 86 26
1.9554 -4.0629 119.5 105 90 25
2.5535 -4.0397 118.75 108 91 28
3.0633 -4.0335 118.72 102 89 27
3.5915 -4.023 118.51 104 93 26
4.0449 -4.0286 118.98 104 87 25
4.5644 -4.0197 118.82 105 90 27
5.0675 -4.0142 118.81 103 87 28
5.6222 -3.9957 118.23 101 86 25
6.1078 -3.9938 118.36 98 85 26
6.6318 -3.9816 118.05 97 83 27
7.1235 -3.9777 118.08 95 81 24
7.4302 -4.0298 120.55 91 76 27
7.644 -4.1175 124.57 88 80 33
6.5407 -4.6604 148.42 109 115 131
4.0158 -5.7804 197.51 68 67 36
4.7109 -5.8186 199.5 64 63 36
5.5227 -5.8152 199.66 64 61 37
6.3428 -5.8085 199.68 62 61 34
7.161 -5.8025 199.72 64 62 36
7.9814 -5.7953 199.7 65 64 36
8.9146 -5.7231 196.81 62 63 34
10.55 -5.1889 173.55 61 59 36
12.217 -4.4988 143.33 119 117 75
12.952 -4.3754 138.07 97 89 50
13.56 -4.3335 136.41 92 85 46
14.136 -4.3128 135.67 72 73 39
14.706 -4.2921 134.93 68 65 37
15.264 -4.2823 134.67 65 62 35
15.815 -4.2881 135.09 62 59 33
16.373 -4.269 134.41 60 56 32
16.925 -4.26 134.17 62 57 30
17.48 -4.2666 134.62 61 58 32
18.029 -4.2517 134.1 60 60 30
18.586 -4.2562 134.46 61 57 31
19.133 -4.2448 134.09 61 56 32
19.688 -4.2434 134.17 57 57 30
20.253 -4.2514 134.66 57 57 28
20.796 -4.2387 134.23 55 54 29
21.364 -4.2455 134.66 54 52 27
21.928 -4.2476 134.88 53 51 27
22.472 -4.237 134.53 56 54 30
23.048 -4.2438 134.96 55 56 29
23.627 -4.2506 135.38 58 54 29
24.232 -4.2661 136.19 45 40 18
24.876 -4.2941 137.56 34 32 15
25.381 -4.2678 136.48 89 91 48
25.83 -4.2251 134.65 101 102 55
26.267 -4.1832 132.84 108 107 54
26.746 -4.1585 131.82 84 81 44
27.332 -4.1662 132.25 89 88 47
27.836 -4.1508 131.64 91 88 51
28.36 -4.1415 131.3 89 86 47
28.93 -4.144 131.49 87 87 48
29.471 -4.1394 131.35 90 88 49
30.01 -4.1341 131.17 93 88 50
30.566 -4.1328 131.18 93 92 52
31.215 -4.1505 132.04 91 91 50
31.738 -4.1414 131.69 90 90 52
32.218 -4.1244 130.97 93 92 53
32.841 -4.135 131.5 93 92 50
33.408 -4.1345 131.52 92 89 49
33.958 -4.1308 131.39 92 90 51
34.539 -4.1323 131.5 89 89 52
35.134 -4.1358 131.69 91 90 49
35.633 -4.1237 131.16 88 89 50
36.171 -4.1181 130.94 86 87 48
36.882 -4.1379 131.86 87 87 45
37.411 -4.1305 131.54 87 85 46
37.929 -4.1218 131.15 88 85 49
38.537 -4.1254 131.33 86 86 46
39.173 -4.1324 131.65 86 85 45
39.758 -4.1322 131.64 84 81 47
40.35 -4.1327 131.66 84 84 48
40.891 -4.1267 131.38 84 84 47
41.475 -4.126 131.34 84 84 47
42.199 -4.1414 132.03 83 81 47
42.637 -4.1233 131.18 81 83 44
43.22 -4.122 131.1 84 82 47
43.804 -4.1207 131.01 82 78 45
44.366 -4.1169 130.8 80 79 47
45.009 -4.1215 130.98 80 79 44
45.656 -4.1261 131.15 80 78 48
46.242 -4.1242 131.02 80 79 46
46.83 -4.1225 130.89 82 80 47
47.633 -4.1413 131.69 78 77 46
48.18 -4.135 131.35 77 77 45
48.908 -4.1455 131.76 83 78 46
49.776 -4.1681 132.72 78 80 46
50.368 -4.1651 132.52 82 79 44
50.91 -4.1577 132.1 80 81 44
51.488 -4.1535 131.83 81 80 49
52.523 -4.1877 133.3 82 83 48
53.288 -4.1982 133.68 83 82 45
53.857 -4.1921 133.31 81 82 46
54.593 -4.1994 133.55 85 84 47
55.66 -4.2323 134.93 85 84 43
56.636 -4.2568 135.93 86 83 44
57.44 -4.2673 136.29 87 84 51
58.201 -4.274 136.47 86 86 50
59.478 -4.3182 138.34 87 82 49
60.926 -4.3732 140.69 86 85 52
61.732 -4.3804 140.88 88 85 52
63.395 -4.4474 143.75 0 0 0
64.612 -4.4812 145.12 0 0 0
65.409 -4.4852 145.15 0 0 0
67.385 -4.5678 148.69 0 0 0
68.372 -4.5824 149.18 0 0 0
69.886 -4.6306 151.17 0 0 0
71.108 -4.6584 152.23 0 0 0
72.046 -4.6671 152.44 0 0 0
72.565 -4.6492 151.46 0 0 0
73.379 -4.6497 151.29 0 0 0
73.79 -4.6254 150.02 0 0 0
73.844 -4.5803 147.83 0 0 0
73.399 -4.5067 144.37 0 0 0
-33.259 -4.001 116.19 63 60 33
-32.563 -3.9914 116.28 59 58 30
-31.973 -3.9875 116.62 55 56 30
-30.68 -3.9426 115.2 60 59 30
-30.059 -3.9362 115.42 50 50 29
-29.78 -3.9498 116.5 50 51 29
-29.645 -3.9724 117.97 47 45 23
-29.703 -4.007 119.97 50 52 23
-29.316 -4.0151 120.82 56 50 28
-28.935 -4.0238 121.7 58 53 28
-28.704 -4.042 123 59 58 31
-28.223 -4.0448 123.61 54 54 29
-27.781 -4.0501 124.34 62 57 31
-27.493 -4.0655 125.53 60 56 30
-26.889 -4.0606 125.8 60 56 29
-26.268 -4.0544 126 60 55 30
-25.875 -4.0633 126.89 61 58 28
-25.542 -4.0767 127.98 63 60 32
-25.185 -4.0887 129.01 65 60 30
-24.625 -4.0869 129.41 66 61 31
-24.472 -4.1139 131.12 65 61 34
-23.715 -4.0983 130.88 67 64 34
-23.375 -4.1126 132.01 69 68 36
-23.13 -4.1344 133.49 67 66 33
-22.685 -4.1419 134.31 72 69 35
-22.08 -4.1375 134.58 68 66 32
-21.621 -4.1443 135.36 70 67 33
-21.38 -4.1684 136.95 72 68 34
-20.802 -4.1665 137.32 73 72 36
-20.285 -4.1695 137.93 75 68 33
-20.028 -4.194 139.54 76 72 35
-19.569 -4.2025 140.4 76 70 34
-19.141 -4.2141 141.41 74 71 33
-18.394 -4.1988 141.13 75 72 37
-18.17 -4.2285 143 75 69 32
-17.548 -4.2242 143.24 74 72 36
-17.183 -4.243 144.59 75 69 35
-16.572 -4.2399 144.88 76 72 36
-16.077 -4.2477 145.7 71 70 34
-15.45 -4.2435 145.93 74 69 35
-15.204 -4.2759 147.94 73 70 32
-14.639 -4.2783 148.49 70 67 32
-14.137 -4.2873 149.35 69 66 32
-13.659 -4.2992 150.37 71 69 34
-13.021 -4.295 150.58 71 66 34
-12.388 -4.2915 150.83 73 68 33
-10.647 -4.1675 145.09 67 62 31
-5.9275 -3.7082 122.63 56 55 27
-4.8889 -3.646 119.86 132 115 35
-4.0949 -3.6095 118.35 126 107 29
-3.5743 -3.6038 118.38 110 89 25
-3.3076 -3.6288 119.94 104 90 25
-2.6932 -3.612 119.4 108 90 24
-2.2139 -3.6117 119.69 114 92 25
-1.6438 -3.5997 119.39 123 106 29
-1.069 -3.5866 119.02 110 97 26
-0.55368 -3.5811 119.03 108 93 26
-0.039526 -3.5757 119.04 107 86 25
0.50144 -3.5663 118.84 110 94 25
1.0009 -3.5627 118.94 107 88 28
1.515 -3.5568 118.91 108 87 26
2.0205 -3.5521 118.94 105 82 24
2.5427 -3.5446 118.82 101 85 23
3.0494 -3.5394 118.82 99 81 22
3.5975 -3.5267 118.43 95 78 22
4.0348 -3.5337 119.05 94 77 22
4.5155 -3.5332 119.28 95 78 22
5.0001 -3.5322 119.48 90 76 20
5.5299 -3.522 119.2 84 73 20
6.1042 -3.5015 118.37 86 72 19
6.6533 -3.4852 117.76 98 88 26
7.1343 -3.4838 117.92 94 79 23
7.3649 -3.5449 121.37 85 75 23
7.6358 -3.6024 124.64 90 79 39
6.3612 -4.0965 151.01 105 116 128
3.9772 -4.9793 198.04 64 65 37
4.7119 -4.998 199.4 64 61 34
5.5282 -4.9926 199.48 64 60 37
6.3413 -4.9884 199.61 65 60 35
7.162 -4.9814 199.59 63 61 35
7.9884 -4.9717 199.42 63 63 33
8.9063 -4.9181 196.9 61 60 32
10.367 -4.5698 178.55 63 62 35
12.21 -3.9104 143.44 114 113 72
12.948 -3.8066 138.09 109 103 54
13.549 -3.7765 136.69 89 84 47
14.13 -3.755 135.75 75 73 39
14.7 -3.7379 135.04 68 66 33
15.252 -3.7392 135.31 67 63 31
15.812 -3.7283 134.93 63 58 32
16.368 -3.7197 134.66 60 60 29
16.922 -3.7161 134.66 60 58 32
17.475 -3.7109 134.57 62 58 29
18.03 -3.7085 134.63 59 55 30
18.579 -3.6978 134.23 59 56 30
19.131 -3.6938 134.19 59 57 32
19.68 -3.6871 134 57 55 30
20.238 -3.6886 134.26 58 54 29
20.797 -3.6886 134.42 55 50 30
21.359 -3.6896 134.65 55 51 27
21.918 -3.6879 134.72 55 54 27
22.49 -3.6917 135.08 56 53 29
23.037 -3.6841 134.82 55 52 27
23.625 -3.6922 135.42 46 46 23
24.218 -3.7004 136.02 43 39 19
24.821 -3.7096 136.68 30 28 14
25.368 -3.701 136.35 100 94 50
25.734 -3.6428 133.26 94 87 44
26.25 -3.63 132.68 80 77 45
26.716 -3.6059 131.47 77 75 42
27.226 -3.5944 130.95 76 72 39
27.72 -3.5801 130.28 75 73 42
28.361 -3.5977 131.37 79 76 43
28.913 -3.5953 131.35 84 80 44
29.451 -3.5903 131.18 81 80 43
29.997 -3.5869 131.1 82 81 42
30.507 -3.5772 130.65 83 84 45
31.085 -3.5792 130.87 82 78 45
31.665 -3.5813 131.07 84 82 44
32.272 -3.5871 131.49 84 81 44
32.838 -3.586 131.51 81 79 44
33.331 -3.5742 130.94 78 76 44
33.878 -3.5705 130.81 81 79 42
34.437 -3.5684 130.77 81 78 42
35.017 -3.569 130.87 79 76 45
35.525 -3.5601 130.44 79 79 41
36.065 -3.5554 130.24 77 75 40
36.706 -3.5629 130.72 76 75 41
37.307 -3.5652 130.9 76 77 41
37.846 -3.56 130.66 80 78 43
38.558 -3.5739 131.49 76 75 41
39.032 -3.5614 130.84 74 74 38
39.709 -3.5706 131.39 74 74 42
40.233 -3.5634 131.03 76 73 45
40.75 -3.5558 130.63 73 71 42
41.445 -3.5655 131.21 71 73 40
41.891 -3.5511 130.42 71 74 40
42.52 -3.554 130.61 76 70 41
43.153 -3.5569 130.79 72 72 40
43.742 -3.5557 130.73 71 70 37
44.369 -3.5576 130.85 71 74 38
45.024 -3.5615 131.08 72 71 40
45.558 -3.5551 130.72 71 70 41
46.232 -3.5602 131 72 72 40
46.787 -3.5554 130.73 70 70 40
47.409 -3.5558 130.74 70 69 39
48.129 -3.5634 131.16 69 66 37
48.703 -3.5597 130.93 70 66 37
49.334 -3.5601 130.93 70 69 40
49.925 -3.5574 130.75 72 69 40
50.539 -3.5563 130.66 70 69 42
51.208 -3.5588 130.77 71 70 40
52.056 -3.5731 131.54 70 70 41
52.62 -3.5679 131.21 71 72 42
53.279 -3.5688 131.21 70 72 41
53.894 -3.5667 131.05 71 71 39
54.6 -3.5702 131.19 72 74 43
55.443 -3.5819 131.79 73 71 43
56.337 -3.5961 132.53 74 73 42
57.268 -3.6119 133.35 74 75 42
57.941 -3.6117 133.28 75 73 45
58.645 -3.613 133.28 0 0 0
59.567 -3.6266 133.97 0 0 0
60.672 -3.6499 135.19 0 0 0
61.793 -3.673 136.41 0 0 0
62.585 -3.6773 136.56 0 0 0
63.26 -3.6749 136.34 0 0 0
64.697 -3.7125 138.35 0 0 0
65.954 -3.7395 139.76 0 0 0
67.556 -3.783 142.1 0 0 0
68.965 -3.8152 143.79 0 0 0
70.814 -3.8681 146.63 0 0 0
72.407 -3.9066 148.67 0 0 0
73.139 -3.902 148.3 0 0 0
73.513 -3.8802 146.98 0 0 0
72.903 -3.8125 143.1 0 0 0
-33.312 -3.4497 116.31 59 57 30
-32.535 -3.4379 116.21 57 58 31
-31.911 -3.433 116.47 56 57 30
-30.608 -3.3961 115.02 47 45 24
-30.076 -3.3948 115.46 57 57 30
-29.611 -3.3965 116.06 51 49 27
-29.673 -3.4236 118.03 48 47 26
-29.188 -3.4246 118.61 47 45 25
-29.259 -3.453 120.66 50 48 24
-29.003 -3.4657 121.88 53 51 26
-28.434 -3.4629 122.25 56 51 30
-28.289 -3.4816 123.8 54 52 26
-27.737 -3.4797 124.22 56 53 26
-27.097 -3.4732 124.38 56 55 28
-26.817 -3.4856 125.58 56 52 28
-26.302 -3.4856 126.1 59 53 26
-26.03 -3.4989 127.36 60 55 27
-25.575 -3.5024 128.08 60 55 30
-25.227 -3.512 129.14 63 61 31
-24.648 -3.5089 129.48 65 62 31
-24.274 -3.5174 130.47 66 64 29
-23.894 -3.5258 131.47 67 62 31
-23.449 -3.5307 132.26 68 64 35
-22.917 -3.5306 132.76 66 63 31
-22.541 -3.5399 133.81 69 64 33
-22.486 -3.5689 136 67 66 32
-21.627 -3.5494 135.37 68 63 30
-21.409 -3.5694 137.05 70 65 32
-20.745 -3.5618 137.11 72 68 35
-20.366 -3.5724 138.23 72 70 33
-20.079 -3.5893 139.73 70 69 34
-19.427 -3.5827 139.84 74 69 36
-19.125 -3.5994 141.33 75 69 36
-18.421 -3.5894 141.23 74 72 36
-18.085 -3.6047 142.64 76 73 39
-17.794 -3.6237 144.28 76 70 34
-17.195 -3.6215 144.63 74 69 36
-16.59 -3.6187 144.95 74 68 36
-15.972 -3.6151 145.21 73 69 36
-15.704 -3.6378 147.08 71 67 33
-15.092 -3.635 147.4 73 71 38
-14.638 -3.6447 148.47 71 66 33
-14.297 -3.6639 150.13 70 67 35
-13.536 -3.6498 149.74 71 64 33
-12.952 -3.6499 150.22 67 63 31
-12.338 -3.6477 150.55 64 62 33
-10.652 -3.5532 145.1 65 63 31
-5.7123 -3.1684 121.43 53 50 24
-4.7414 -3.124 119.01 137 115 35
-3.9305 -3.0925 117.38 123 105 29
-3.5784 -3.1029 118.39 120 102 28
-3.1611 -3.1076 119.04 121 102 28
-2.6642 -3.1048 119.21 127 107 30
-2.1811 -3.1034 119.47 137 117 32
-1.5985 -3.0919 119.07 147 126 36
-1.1254 -3.0915 119.38 114 94 26
-0.55345 -3.0805 119.01 111 94 25
-0.076454 -3.0797 119.29 128 103 32
0.42958 -3.0756 119.36 135 113 37
1.0434 -3.0588 118.59 144 121 38
1.5373 -3.0558 118.71 153 133 40
2.0601 -3.0491 118.6 139 120 36
2.5248 -3.0498 118.95 144 129 39
3.1064 -3.035 118.3 141 130 41
3.6425 -3.0257 117.99 142 133 42
4.1878 -3.0147 117.57 138 125 39
4.6775 -3.0114 117.65 130 117 34
5.1988 -3.0032 117.4 123 104 28
5.6673 -3.0031 117.68 118 99 28
6.1401 -3.0026 117.94 110 89 27
6.6673 -2.9926 117.56 104 89 25
7.1715 -2.9863 117.42 93 80 24
7.4729 -3.0194 119.91 84 76 26
7.6838 -3.0752 123.93 87 76 34
6.0167 -3.5479 156.01 107 117 126
3.9157 -4.1794 198.92 66 66 36
4.6931 -4.1832 199.63 64 63 36
5.5302 -4.1726 199.35 66 60 35
6.3459 -4.1672 199.42 62 60 32
7.16 -4.1624 199.52 61 59 35
7.9809 -4.1554 199.47 61 60 34
8.8872 -4.1166 197.24 59 58 36
10.249 -3.8839 181.73 60 60 33
12.193 -3.326 143.87 116 114 71
12.937 -3.2413 138.34 111 107 61
13.547 -3.2126 136.65 92 88 48
14.128 -3.1945 135.67 77 74 41
14.687 -3.1899 135.62 74 68 39
15.253 -3.1758 134.91 64 62 36
15.811 -3.1665 134.52 59 58 32
16.363 -3.1668 134.79 60 59 32
16.918 -3.1619 134.7 61 59 33
17.472 -3.1579 134.67 59 57 32
18.026 -3.1539 134.64 60 57 32
18.579 -3.1499 134.6 58 54 29
19.126 -3.14 134.14 55 54 27
19.681 -3.1387 134.28 55 52 29
20.244 -3.1408 134.66 56 52 28
20.785 -3.1305 134.16 57 55 30
21.352 -3.1331 134.57 56 54 32
21.914 -3.1322 134.73 54 54 28
22.475 -3.1306 134.82 54 51 28
23.073 -3.1403 135.73 51 45 26
23.653 -3.1425 136.09 47 48 22
24.218 -3.1396 136.09 43 38 19
24.8 -3.1409 136.39 28 24 16
25.341 -3.1321 135.97 92 89 46
25.76 -3.0978 133.72 82 75 39
26.199 -3.0712 132 74 70 38
26.675 -3.0543 130.97 69 67 34
27.255 -3.0574 131.38 67 66 37
27.807 -3.0552 131.4 67 66 34
28.319 -3.0463 130.93 71 69 38
28.882 -3.0457 131.06 73 71 38
29.411 -3.0398 130.8 73 71 38
29.947 -3.0352 130.63 74 73 39
30.544 -3.0388 131.05 73 73 39
31.122 -3.0396 131.26 73 73 40
31.615 -3.0292 130.67 75 72 40
32.255 -3.037 131.38 74 73 38
32.76 -3.0283 130.9 75 73 41
33.375 -3.0324 131.34 73 73 41
33.879 -3.0237 130.85 73 71 35
34.418 -3.0192 130.66 74 72 39
34.95 -3.0139 130.41 72 68 36
35.559 -3.0164 130.71 73 72 39
36.134 -3.0152 130.75 69 70 36
36.694 -3.0124 130.67 71 66 38
37.286 -3.0125 130.79 70 68 38
37.871 -3.0118 130.85 70 68 39
38.411 -3.007 130.62 68 69 36
38.985 -3.005 130.58 64 64 36
39.59 -3.0055 130.72 67 65 36
40.307 -3.0145 131.48 68 66 38
40.726 -3.0001 130.52 69 68 39
41.328 -2.9998 130.6 67 65 39
41.993 -3.0039 130.99 66 66 36
42.477 -2.9948 130.41 68 66 35
43.213 -3.0033 131.12 69 69 38
43.792 -3.0007 131.01 65 66 34
44.209 -2.9872 130.1 66 63 35
44.91 -2.9925 130.56 64 63 34
45.498 -2.9903 130.47 61 62 35
46.171 -2.9932 130.75 65 61 36
46.777 -2.9917 130.71 63 61 34
47.359 -2.9887 130.55 61 61 34
47.928 -2.9849 130.32 64 61 36
48.665 -2.9905 130.79 64 62 35
49.31 -2.9906 130.85 63 61 36
49.9 -2.9876 130.68 62 59 33
50.375 -2.9783 130.03 63 62 35
51.108 -2.9827 130.41 65 61 35
51.848 -2.9871 130.77 62 63 38
52.44 -2.9836 130.55 62 63 35
53.103 -2.9836 130.59 64 64 36
53.787 -2.9845 130.68 63 62 38
54.402 -2.9817 130.51 64 64 35
55.242 -2.9895 131.11 64 63 35
55.814 -2.9844 130.76 65 63 35
56.642 -2.9909 131.27 65 65 37
57.306 -2.9897 131.19 65 67 39
58.035 -2.9911 131.32 0 0 0
58.796 -2.9936 131.52 0 0 0
59.4 -2.9891 131.2 0 0 0
60.548 -3.0073 132.57 0 0 0
61.135 -3.0016 132.16 0 0 0
61.911 -3.0035 132.31 0 0 0
62.809 -3.01 132.8 0 0 0
64.049 -3.0293 134.25 0 0 0
65.357 -3.0504 135.82 0 0 0
66.094 -3.0489 135.72 0 0 0
67.831 -3.0845 138.38 0 0 0
69.188 -3.1048 139.9 0 0 0
71.413 -3.1554 143.68 0 0 0
72.155 -3.1515 143.4 0 0 0
72.471 -3.1323 142 0 0 0
-33.261 -2.8937 116.18 56 55 28
-32.599 -2.8885 116.36 51 51 26
-31.691 -2.8745 115.92 55 52 28
-30.67 -2.8561 115.17 57 55 31
-30.005 -2.85 115.27 55 57 31
-29.64 -2.8544 116.13 47 47 27
-29.712 -2.8747 118.13 47 45 24
-29.705 -2.8925 119.96 47 43 25
-29.307 -2.8962 120.79 50 48 24
-28.813 -2.8963 121.35 53 47 24
-28.461 -2.9018 122.31 54 50 27
-28.145 -2.9087 123.38 52 50 29
-27.694 -2.9106 124.08 52 50 24
-27.035 -2.9043 124.19 55 52 27
-26.959 -2.921 125.99 55 54 27
-26.404 -2.9188 126.4 59 55 28
-26.233 -2.9323 127.97 56 55 28
-25.452 -2.9209 127.69 61 58 30
-25.187 -2.9308 129 58 57 30
-24.672 -2.9304 129.54 66 59 31
-24.457 -2.9428 131.06 63 61 29
-23.918 -2.9416 131.53 66 59 32
-23.361 -2.9396 131.95 67 62 31
-23.083 -2.9499 133.32 67 63 32
-22.547 -2.949 133.82 69 60 32
-22.149 -2.9544 134.8 69 63 33
-21.569 -2.9516 135.15 65 61 30
-21.376 -2.9668 136.92 68 64 32
-20.813 -2.965 137.35 68 67 32
-20.38 -2.9695 138.27 69 66 34
-19.964 -2.975 139.28 72 69 33
-19.477 -2.9772 140.02 70 66 31
-18.891 -2.9747 140.38 73 70 33
-18.569 -2.9855 141.82 72 68 34
-18.021 -2.9851 142.36 73 65 32
-17.601 -2.9915 143.44 73 70 36
-16.952 -2.986 143.56 72 68 35
-16.629 -2.9981 145.11 70 67 33
-16.114 -3.0001 145.84 72 67 33
-15.405 -2.9914 145.69 71 64 32
-15.16 -3.009 147.7 72 70 34
-14.528 -3.005 147.93 72 67 33
-14.16 -3.0164 149.44 68 65 30
-13.588 -3.0162 149.98 69 67 33
-13.095 -3.0209 150.93 64 62 30
-12.288 -3.0063 150.26 64 62 30
-10.335 -2.9181 143.38 58 57 30
-5.9257 -2.6665 122.59 49 47 23
-4.8923 -2.629 119.85 136 116 33
-4.1494 -2.6097 118.64 131 107 31
-3.5927 -2.6026 118.46 132 109 29
-3.1655 -2.6046 119.04 146 121 37
-2.7395 -2.6068 119.66 154 129 42
-2.1254 -2.5954 119.09 158 136 39
-1.5938 -2.5898 119.02 132 108 29
-1.0554 -2.5835 118.89 115 96 25
-0.54918 -2.5797 118.96 114 94 27
0.0099519 -2.5715 118.64 118 98 28
0.52928 -2.5663 118.59 113 97 26
1.0044 -2.5649 118.87 117 94 27
1.5107 -2.5608 118.9 113 96 25
2.1721 -2.5423 117.65 113 94 28
2.5803 -2.547 118.45 113 93 26
3.0415 -2.547 118.84 113 92 25
3.5962 -2.5377 118.39 109 93 26
4.0866 -2.5347 118.5 107 91 24
4.6735 -2.5212 117.66 106 91 26
5.1543 -2.5189 117.82 105 90 24
5.5942 -2.5216 118.44 104 90 27
6.0885 -2.5181 118.48 105 90 28
6.6382 -2.5073 117.87 100 82 25
7.1701 -2.4982 117.4 92 81 23
7.6084 -2.5019 118.09 90 79 24
7.723 -2.5551 123.34 83 77 28
5.5805 -2.9734 162.35 102 114 127
3.8655 -3.3705 199.62 65 65 35
4.7116 -3.36 199.23 68 63 35
5.5522 -3.3499 198.86 62 61 33
6.3535 -3.3471 199.17 63 60 35
7.1552 -3.3447 199.51 61 59 34
7.9708 -3.3394 199.58 60 60 31
8.7993 -3.3307 199.31 58 57 31
10.175 -3.1591 183.66 103 87 29
12.186 -2.7345 143.94 115 113 76
12.911 -2.68 139.16 119 114 65
13.541 -2.6504 136.72 94 89 50
14.122 -2.6366 135.77 79 75 42
14.693 -2.6247 135 71 68 36
15.257 -2.6132 134.25 65 63 35
15.802 -2.6202 135.28 63 60 32
16.359 -2.6128 134.92 61 60 32
16.914 -2.6077 134.77 60 57 32
17.467 -2.6019 134.56 56 57 30
18.017 -2.5934 134.08 58 57 28
18.575 -2.5951 134.58 56 53 32
19.122 -2.587 134.12 55 52 26
19.682 -2.5875 134.5 56 54 27
20.234 -2.583 134.4 54 52 28
20.799 -2.5835 134.77 54 52 29
21.35 -2.5785 134.61 53 52 28
21.906 -2.5754 134.62 53 50 28
22.473 -2.5747 134.87 51 47 26
23.054 -2.5767 135.38 50 49 27
23.638 -2.5783 135.86 46 44 25
24.195 -2.574 135.74 43 40 19
24.811 -2.5802 136.67 26 22 15
25.306 -2.5651 135.47 89 85 45
25.756 -2.5448 133.73 80 72 38
26.239 -2.531 132.64 59 51 28
26.702 -2.5159 131.4 62 57 33
27.221 -2.5091 131 60 55 32
27.806 -2.5106 131.44 65 60 34
28.336 -2.5053 131.18 65 60 32
28.863 -2.4998 130.89 65 63 35
29.41 -2.4966 130.84 70 64 34
29.99 -2.4966 131.12 69 64 34
30.51 -2.4905 130.76 65 66 34
31.069 -2.4883 130.8 68 66 34
31.665 -2.4892 131.15 66 65 33
32.176 -2.4826 130.73 68 65 37
32.778 -2.4835 131.09 67 66 36
33.303 -2.4781 130.78 65 63 36
33.868 -2.4758 130.8 66 65 36
34.427 -2.473 130.76 65 65 36
34.999 -2.4711 130.8 67 65 36
35.585 -2.47 130.93 65 63 36
36.264 -2.4749 131.68 65 64 34
36.695 -2.4633 130.71 65 63 35
37.246 -2.4597 130.57 64 63 36
37.831 -2.458 130.63 63 63 35
38.465 -2.4592 130.98 62 62 32
39.026 -2.4559 130.86 65 61 32
39.577 -2.452 130.67 63 61 38
40.165 -2.4501 130.69 62 61 32
40.844 -2.4529 131.21 62 61 33
41.455 -2.4518 131.32 60 59 34
41.896 -2.442 130.5 62 62 32
42.474 -2.4393 130.42 59 61 35
43.037 -2.4357 130.25 60 60 32
43.641 -2.434 130.28 61 59 33
44.327 -2.436 130.69 58 56 32
44.981 -2.4362 130.93 59 60 33
45.483 -2.4296 130.42 54 57 32
46.149 -2.4301 130.67 60 58 33
46.755 -2.4278 130.63 59 57 33
47.356 -2.4253 130.56 58 59 32
47.96 -2.4227 130.48 57 56 31
48.593 -2.4212 130.51 60 59 33
49.307 -2.4227 130.87 57 57 31
49.746 -2.4136 130.08 58 56 32
50.505 -2.4164 130.57 56 57 33
51.083 -2.4125 130.33 56 54 31
51.815 -2.4138 130.66 55 52 32
52.461 -2.4119 130.65 57 55 33
53.101 -2.4098 130.6 55 55 28
53.817 -2.4099 130.81 56 54 31
54.4 -2.4056 130.52 56 55 31
55.066 -2.4039 130.52 58 56 34
55.963 -2.4092 131.29 56 58 33
56.615 -2.4066 131.19 57 56 33
57.235 -2.4029 130.97 57 57 34
58.016 -2.4038 131.27 0 0 0
58.723 -2.4024 131.3 0 0 0
59.325 -2.3978 130.99 0 0 0
60.031 -2.3959 130.98 0 0 0
60.628 -2.391 130.63 0 0 0
61.615 -2.3965 131.44 0 0 0
62.25 -2.3921 131.16 0 0 0
63.286 -2.3982 132.04 0 0 0
63.92 -2.3934 131.73 0 0 0
65.078 -2.4018 132.88 0 0 0
65.998 -2.4037 133.31 0 0 0
67.083 -2.4092 134.16 0 0 0
68.39 -2.4195 135.57 0 0 0
70.597 -2.4504 139.29 0 0 0
71.547 -2.4508 139.6 0 0 0
-33.548 -2.3467 116.85 57 58 32
-32.181 -2.3263 115.34 55 54 27
-31.699 -2.3263 115.93 57 57 32
-30.622 -2.3121 115.04 49 50 26
-30.002 -2.3084 115.25 43 43 24
-29.614 -2.3103 116.05 41 38 22
-29.568 -2.3205 117.74 43 41 21
-29.776 -2.3371 120.14 44 40 22
-29.293 -2.3368 120.74 46 44 23
-28.696 -2.3335 121.02 49 46 23
-28.478 -2.3399 122.35 50 49 23
-28.252 -2.3461 123.67 52 46 25
-27.681 -2.3434 124.03 54 48 26
-27.316 -2.3461 124.99 55 51 26
-26.966 -2.3492 126 55 51 26
-26.658 -2.3535 127.14 52 49 26
-25.94 -2.3468 127.07 53 51 26
-25.634 -2.3513 128.24 55 52 27
-25.231 -2.3531 129.12 58 57 26
-24.894 -2.3569 130.24 61 57 30
-24.516 -2.3597 131.24 60 58 30
-23.924 -2.3563 131.54 62 59 32
-23.308 -2.3522 131.76 64 62 29
-23.199 -2.363 133.7 65 63 33
-22.811 -2.3658 134.72 66 63 32
-22.221 -2.3625 135.04 62 60 30
-21.688 -2.361 135.56 63 62 31
-21.438 -2.3683 137.13 68 64 31
-20.82 -2.3643 137.36 68 63 30
-20.394 -2.3663 138.31 69 63 31
-19.911 -2.3666 139.05 70 64 32
-19.468 -2.3683 139.97 70 66 32
-18.992 -2.369 140.77 69 66 33
-18.697 -2.3759 142.32 69 66 32
-18.069 -2.3717 142.54 70 67 34
-17.484 -2.369 142.92 70 66 33
-17.012 -2.3703 143.8 73 66 33
-16.662 -2.376 145.24 69 65 33
-16.023 -2.3715 145.41 70 66 33
-15.608 -2.3753 146.6 69 64 31
-15.06 -2.3743 147.21 72 66 32
-14.541 -2.3745 147.96 69 63 33
-14.143 -2.3794 149.33 67 64 30
-13.501 -2.3752 149.52 67 65 31
-13.004 -2.3766 150.44 64 59 31
-12.389 -2.3735 150.77 63 58 29
-10.165 -2.3037 142.44 57 56 27
-5.7859 -2.1401 121.8 46 44 22
-4.8604 -2.1191 119.65 138 115 32
-4.2358 -2.1107 119.11 131 111 32
-3.697 -2.1059 119.06 126 103 32
-3.2235 -2.104 119.38 133 114 33
-2.7251 -2.101 119.55 163 146 48
-2.0653 -2.0902 118.68 139 121 33
-1.6566 -2.0914 119.41 123 101 27
-1.0773 -2.0843 119.01 118 99 27
-0.6257 -2.0835 119.47 116 96 27
0.087982 -2.069 118.05 114 97 29
0.49698 -2.0705 118.81 111 94 27
1.0156 -2.066 118.75 117 98 29
1.5364 -2.0614 118.67 116 99 32
2.0735 -2.0557 118.43 117 99 27
2.5621 -2.0528 118.58 109 95 26
3.1591 -2.0432 117.77 111 94 25
3.6931 -2.0372 117.47 113 90 26
4.2143 -2.0318 117.25 107 91 26
4.6876 -2.0296 117.48 105 91 26
5.1474 -2.0285 117.86 105 90 25
5.5513 -2.0318 118.86 104 89 25
6.1508 -2.0202 117.74 99 86 25
6.7506 -2.008 116.49 99 85 24
7.2601 -2.0025 116.23 91 80 23
7.6502 -2.0076 117.5 88 78 27
7.7038 -2.0453 123.56 86 78 31
5.2518 -2.3368 167.11 104 114 129
3.9123 -2.5458 198.8 67 66 34
4.7337 -2.5397 198.77 63 63 33
5.4841 -2.5419 199.97 65 62 35
6.3084 -2.5358 199.93 65 60 37
7.1916 -2.5214 198.63 61 58 35
7.9619 -2.5224 199.65 61 60 31
8.8856 -2.4993 197 61 59 34
10.161 -2.4079 183.91 101 89 25
12.168 -2.145 144.4 113 109 70
12.925 -2.1025 138.48 116 113 65
13.538 -2.087 136.69 96 93 50
14.121 -2.0764 135.63 76 72 40
14.681 -2.0717 135.49 71 67 33
15.244 -2.065 135.01 66 64 34
15.8 -2.0606 134.9 63 60 34
16.355 -2.0574 134.96 62 60 31
16.91 -2.0515 134.6 59 59 33
17.465 -2.049 134.78 59 58 33
18.02 -2.0461 134.9 61 57 30
18.571 -2.0403 134.53 60 55 31
19.117 -2.0341 134.1 56 55 29
19.681 -2.0341 134.66 54 52 30
20.238 -2.0311 134.74 55 53 28
20.777 -2.0241 134.15 54 53 28
21.342 -2.0228 134.49 55 55 27
21.9 -2.0198 134.56 51 51 27
22.462 -2.0172 134.69 53 49 28
23.038 -2.0164 135.12 46 44 24
23.645 -2.0188 136.08 46 46 23
24.215 -2.0162 136.2 42 40 21
24.811 -2.016 136.74 24 22 15
25.312 -2.0061 135.63 86 81 42
25.753 -1.9916 133.73 85 77 41
26.202 -1.9792 132.17 72 73 39
26.721 -1.9733 131.71 66 62 33
27.285 -1.9712 131.88 62 59 32
27.805 -1.9657 131.47 59 57 30
28.343 -1.9616 131.31 59 58 29
28.9 -1.9588 131.35 61 60 33
29.435 -1.9546 131.15 60 58 31
29.94 -1.9487 130.65 60 59 29
30.522 -1.9472 130.92 62 62 34
31.104 -1.9456 131.16 60 60 33
31.652 -1.9421 131.07 60 58 30
32.194 -1.9382 130.92 61 60 29
32.792 -1.9371 131.24 60 59 33
33.3 -1.9316 130.79 61 59 34
33.869 -1.9289 130.84 60 59 33
34.393 -1.9242 130.53 62 60 36
35 -1.923 130.84 62 59 32
35.566 -1.92 130.82 59 57 32
36.107 -1.9161 130.62 61 59 33
36.697 -1.9139 130.75 57 58 31
37.171 -1.9075 130.1 58 56 31
37.837 -1.9078 130.69 59 58 32
38.405 -1.9046 130.63 60 57 32
39.067 -1.9045 131.13 58 56 32
39.575 -1.8992 130.68 60 59 33
40.085 -1.8941 130.26 59 57 33
40.71 -1.8925 130.48 58 56 33
41.312 -1.89 130.56 58 59 33
41.888 -1.8868 130.48 59 55 33
42.483 -1.884 130.49 56 55 31
43.052 -1.8804 130.35 57 56 29
43.597 -1.8763 130.08 55 56 31
44.355 -1.8774 130.85 55 54 32
44.763 -1.8697 129.9 56 54 31
45.455 -1.869 130.31 56 55 29
46.153 -1.8682 130.71 54 53 29
46.733 -1.8645 130.55 53 55 31
47.341 -1.8615 130.5 52 51 30
48.005 -1.8596 130.69 55 52 29
48.556 -1.8551 130.37 54 55 30
49.15 -1.8515 130.23 57 52 28
49.86 -1.8502 130.55 54 49 31
50.495 -1.8473 130.55 52 51 31
51.096 -1.8436 130.39 50 50 26
51.775 -1.8414 130.53 51 51 30
52.405 -1.838 130.45 50 50 31
53.076 -1.8354 130.52 50 50 28
53.639 -1.8307 130.18 53 52 30
54.358 -1.8287 130.38 52 51 30
55.123 -1.8273 130.73 52 51 31
55.71 -1.8228 130.43 53 52 32
56.375 -1.8195 130.39 52 51 32
57.008 -1.8156 130.23 50 52 32
57.803 -1.814 130.59 0 0 0
58.596 -1.8123 130.91 0 0 0
59.324 -1.8094 130.99 0 0 0
59.836 -1.8032 130.39 0 0 0
60.618 -1.8008 130.61 0 0 0
61.283 -1.7966 130.45 0 0 0
62.182 -1.7955 130.97 0 0 0
63.081 -1.7941 131.46 0 0 0
63.831 -1.7905 131.48 0 0 0
64.606 -1.787 131.56 0 0 0
65.733 -1.7877 132.59 0 0 0
66.061 -1.7784 131.38 0 0 0
66.716 -1.773 131.08 0 0 0
68.476 -1.7802 133.69 0 0 0
69.946 -1.7834 135.44 0 0 0
-33.592 -1.7905 116.94 59 55 32
-32.753 -1.7856 116.7 57 56 31
-31.639 -1.7772 115.77 52 49 27
-30.731 -1.7711 115.29 47 47 24
-30.154 -1.769 115.62 45 44 25
-29.709 -1.7684 116.28 46 46 24
-29.813 -1.7747 118.36 43 41 19
-29.231 -1.7722 118.68 46 43 22
-29.333 -1.7785 120.83 44 40 21
-28.724 -1.7756 121.08 46 44 22
-28.486 -1.7775 122.35 47 43 22
-28.25 -1.7794 123.65 49 47 24
-27.599 -1.7757 123.78 51 47 25
-27.343 -1.7773 125.05 51 51 26
-26.993 -1.7776 126.06 51 49 24
-26.332 -1.7737 126.15 55 50 26
-26.004 -1.7743 127.24 55 51 24
-25.66 -1.7746 128.3 54 50 27
-25.265 -1.7742 129.22 58 53 26
-24.633 -1.7705 129.38 58 55 27
-24.488 -1.7737 131.13 60 58 29
-23.958 -1.7714 131.63 62 58 29
-23.452 -1.7694 132.22 62 58 30
-23.189 -1.7709 133.65 62 57 29
-22.561 -1.7671 133.83 64 59 31
-22.179 -1.767 134.87 64 61 30
-21.654 -1.7647 135.43 65 60 29
-21.334 -1.7654 136.73 66 61 32
-20.881 -1.7643 137.56 69 62 29
-20.409 -1.7628 138.34 65 65 33
-19.91 -1.7609 139.03 67 66 34
-19.571 -1.7616 140.35 68 61 30
-18.941 -1.7576 140.54 66 62 30
-18.504 -1.7568 141.52 69 63 30
-18.055 -1.7558 142.46 71 64 32
-17.539 -1.7537 143.13 68 65 32
-17.019 -1.7516 143.81 70 68 31
-16.57 -1.7507 144.8 71 67 32
-16.017 -1.748 145.36 67 65 31
-15.551 -1.7469 146.32 69 65 29
-15.129 -1.7466 147.51 71 66 34
-14.596 -1.7444 148.21 67 64 31
-14.125 -1.7434 149.22 68 63 32
-13.49 -1.7394 149.44 64 62 30
-13.005 -1.7382 150.42 64 58 28
-12.39 -1.7346 150.75 60 56 28
-9.9362 -1.6958 141.18 56 53 25
-5.8017 -1.6233 121.86 48 44 23
-4.9806 -1.614 120.3 136 117 33
-4.2764 -1.6068 119.33 133 112 32
-3.7019 -1.6022 119.06 125 102 29
-3.1311 -1.5976 118.79 123 102 29
-2.7299 -1.5964 119.55 124 106 28
-2.0654 -1.5897 118.65 125 105 27
-1.6075 -1.5874 119.06 119 100 29
-1.1213 -1.5845 119.28 117 99 27
-0.56243 -1.58 119 113 94 27
-0.044285 -1.5763 118.98 111 91 27
0.42051 -1.5739 119.35 113 91 25
0.96075 -1.5697 119.14 108 91 24
1.4569 -1.5665 119.27 107 90 25
2.0147 -1.5617 118.88 110 88 25
